ply
format ascii 1.0
element vertex 683
property float x
property float y
property float z
property uchar red
property uchar green
property uchar blue
end_header
-0.4896022990484736 1.3247105540938189 2.6874092924147237 255 255 255
1.4249909068621562 -0.07207345182502635 2.8871876145425337 255 255 255
0.1471875057934668 -0.08638255945290392 2.8885775868860195 255 255 255
0.11430007844962357 -0.012117958125019848 2.6664770908614197 255 255 255
2.1109460987943165 0.3076212244231179 3.424647888020041 255 255 255
1.1720337056010142 0.9514642664750608 3.770354215928272 255 255 255
-1.1939705732196317 0.5109898906724807 2.518309590014757 255 255 255
-1.201602450705394 0.23039111811918753 2.5726208487311317 255 255 255
-1.181600975124335 0.4475079476611195 2.5619564928601473 255 255 255
-1.1648847838498166 -0.39880327080158223 2.615748489040221 255 255 255
-1.1384052946686336 -0.24430035438477943 2.610564068053845 255 255 255
-0.9195908316210888 0.21665027496449774 2.5755679150274857 255 255 255
0.49967341252770814 -0.7039836606106097 2.6312011262503736 255 255 255
-1.0134823580685548 -0.3159533375305535 2.612312693870407 255 255 255
-0.9718260252966776 -0.02602389795159333 2.5914411588929047 255 255 255
-1.056505566905244 -0.2470382642476272 2.6028835055736312 255 255 255
-0.8392876371848053 -0.3394230951976114 2.617185951626433 255 255 255
0.9204690043634864 -0.7813983223556785 2.6329815520802415 255 255 255
1.1432719875964963 -0.09934470057378807 2.5896010912554805 255 255 255
-0.9718728239256548 -0.17090140991515282 2.602115168309505 255 255 255
-1.0407985900192789 -0.39945681210517847 2.617247063733409 255 255 255
0.994032639067691 -0.003951356649087432 2.5839509504111837 255 255 255
0.5776831329612944 -0.4547137839667295 2.6178122820129066 255 255 255
-0.8986234079559847 -0.04134777983752987 2.593086874304157 255 255 255
0.9401376158901901 -0.19880775023940264 2.5993943836192877 255 255 255
0.6990432092317402 -0.6432004307721713 2.6243414311493893 255 255 255
-1.073149628611143 0.5126319703353234 2.5173389207502264 255 255 255
-1.0406751797625633 0.2784853691063612 2.5711516331696793 255 255 255
0.7966016385130247 -0.68090024849576 2.6259304338448213 255 255 255
-0.6448375218862648 -0.40574592843389223 2.616939743595264 255 255 255
1.0928422691690551 -0.10049799101791482 2.591054434372213 255 255 255
0.6396728099770292 -0.47060094803564273 2.6164008297614623 255 255 255
1.0714783050638224 -0.20415189474998907 2.5980727864539253 255 255 255
0.7112560507947888 -0.8624405333337567 2.6418119428099804 255 255 255
-1.1097940923754204 -0.5742395012664455 2.636239719109305 255 255 255
-1.1400204127008342 -0.17267923248684972 2.5997478728656795 255 255 255
0.6814768876471485 -0.7266541510146687 2.630459981219342 255 255 255
1.0131778386805557 -0.2136620878810616 2.5937060969694135 255 255 255
-0.8510239827263342 -0.5546162444112153 2.6310915314702825 255 255 255
-1.0079769406087886 0.5095032630639104 2.523190205221144 255 255 255
0.8692263707570659 -0.7797783974867408 2.6336205530677788 255 255 255
0.48163652981158633 -0.465407130954299 2.6144750275438957 255 255 255
0.58347804812157 -0.7104746990790839 2.6329060361507524 255 255 255
0.4754729644411672 -0.626718265887779 2.623831377978928 255 255 255
1.1661847949119637 0.057289599071970225 2.5762823467049762 255 255 255
-0.9800642150103542 -0.1368340540549956 2.601087351946996 255 255 255
-0.9197554507435785 0.13974450057207338 2.5811780478415933 255 255 255
-0.9641796471165702 0.1444478400092286 2.585525697485393 255 255 255
0.2873454474964549 -0.6933253413334449 2.6319868125586323 255 255 255
-1.147152284813257 0.23166674112825839 2.576287716714653 255 255 255
1.0274061945634605 -0.3836155800868784 2.605401075115916 255 255 255
0.5492237286363719 -0.4474551342239611 2.6149507315019975 255 255 255
-1.1817830805211333 -0.4012386491527871 2.6195986873942934 255 255 255
-0.12924571107984337 0.31828497333013556 6.132435970660504 255 255 255
0.7174291902614123 -0.08857208711015307 2.590544269831422 255 255 255
0.9677406417456537 -0.0058736570782006794 2.5836117601269755 255 255 255
0.7811765562277597 -0.21323704871951982 2.5990280843175264 255 255 255
-0.9207491275007875 -0.25700147580398913 2.612511333129694 255 255 255
0.931760719348971 -0.3711517782493929 2.605864355779311 255 255 255
0.3983967233590924 -0.7097899345848593 2.633223972740369 255 255 255
0.5441719537860669 -0.5920787329142411 2.6213796480966174 255 255 255
0.7987920165480114 -0.465130028910482 2.6139072919688098 255 255 255
1.0156649055138056 0.14043736741706603 2.5755521291886643 255 255 255
0.4493149437040717 -0.7662979909529669 2.639041511971545 255 255 255
-0.9052659801447536 -0.1696251315729498 2.6075378518738717 255 255 255
0.5576149576473602 -0.6322923910961028 2.624559553308862 255 255 255
-0.8942404253296274 0.22445549715103916 2.5767020447205398 255 255 255
0.6230328578102925 -0.6245022114127864 2.6238871093974026 255 255 255
0.7335371466633787 -0.7326270880679104 2.6312815837313095 255 255 255
1.0704514767783713 -0.8947710624253615 2.6400078398874776 255 255 255
0.7620172127275645 -0.7231481118756401 2.633233863786204 255 255 255
-0.9983584520189656 -0.2571758788310222 2.6092222720693767 255 255 255
-0.1283385318014907 0.26790956617096756 1.8221542146435075 255 255 255
0.6322561483805879 -0.8648608589915423 2.6448857154435936 255 255 255
-1.1626117769463142 0.46723221050239716 2.562603408525611 255 255 255
1.1535435782457972 0.07037454132765963 2.5777802251206077 255 255 255
0.6893929529863242 -0.23588384767997247 2.598461341646611 255 255 255
-1.1242122295049244 0.5045396243789924 2.5243194016115718 255 255 255
-1.1141482503908269 -0.40066944865208226 2.611083700218941 255 255 255
0.4457956765980394 -0.7615880767614364 2.6368651834757233 255 255 255
-0.8360133438800248 -0.03899508105856302 2.59843127476131 255 255 255
-0.6336436113081618 -0.4125332770734298 2.6234849403857083 255 255 255
0.5982252489188878 -0.5748820636106367 2.6223564843782983 255 255 255
1.0324410435608031 -0.8777951430397017 2.6353722075447075 255 255 255
0.6830858294215875 -0.6283451756241151 2.6230076363758656 255 255 255
-0.9239309457153638 -0.16904506935250035 2.6060650587193117 255 255 255
0.944339324954708 -0.49248308204334346 2.6161508394551274 255 255 255
0.8640638508117441 -0.6151280523572493 2.6218966714312364 255 255 255
0.875856013332334 -0.5828206695167772 2.6152566113749316 255 255 255
-1.047319035310929 -0.38360567625149566 2.616485456837363 255 255 255
0.5147762058743293 -0.7175965058256222 2.6291240023150153 255 255 255
0.733203629001177 -0.7324417905114375 2.631002336580393 255 255 255
0.8097450367132317 0.06520852503571778 2.584055363966932 255 255 255
0.7436970559560223 0.09701803462481087 2.578447180595969 255 255 255
-1.1014358128517507 -0.3304149900487185 2.6136263067165415 255 255 255
0.8810401279906451 -0.5705477351165216 2.614832887959227 255 255 255
0.4941839267120494 -0.29301406319489814 2.6026804890874953 255 255 255
0.9780942389117727 0.057352056090400325 2.578411018845703 255 255 255
0.8668066272050765 -0.6818526201521535 2.6242900930177377 255 255 255
-1.1120733651923986 0.3576592393017899 2.5683206952539814 255 255 255
-0.6802758647819727 -0.27656904431663853 2.605552407272772 255 255 255
1.1299982505269526 -0.5905902344657908 2.6126213017542126 255 255 255
0.8140431926348078 -0.20084955358249681 2.5995113798983738 255 255 255
-0.9810851629177089 0.42789463006833117 2.570657045931842 255 255 255
-1.1609142503887144 0.14188334041328485 2.5801037537350875 255 255 255
-0.5176910700395921 -0.6702931213506867 2.6356078915691823 255 255 255
0.7205201363436582 -0.576935068220375 2.6187198817809785 255 255 255
-1.1056575226264325 0.4122215359128758 2.5641570089548993 255 255 255
0.4234385943838948 -0.7602568221784343 2.6395950916081143 255 255 255
-1.119490600327165 0.47010864956824344 2.5614621970540243 255 255 255
0.9247889238586665 -0.5743205490724673 2.613735054086886 255 255 255
-1.1011652632903826 0.35102978049583666 2.565827558925014 255 255 255
0.7686573963390659 -0.8192207205458827 2.631058983314449 255 255 255
0.9598700594120375 -0.2294554198813102 2.5899512120392534 255 255 255
-0.9094702163907689 0.11621298214747448 2.5780104140641513 255 255 255
0.3386495596509602 -0.7531001219371397 2.6366984855005438 255 255 255
0.4529443399266082 -0.896604428307736 2.646400591838013 255 255 255
0.7757457952169768 -0.4666074830916982 2.6139429891253356 255 255 255
0.6833774627771634 -0.27848625841589925 2.6017454955629558 255 255 255
-0.9137963213653719 0.22370444329547165 2.576378508920873 255 255 255
-0.9770524121294988 -0.33164945052227485 2.611898085940531 255 255 255
0.4958414656114909 -0.44815610318837357 2.6154059773065583 255 255 255
0.6736582784854706 -0.09763061795801202 2.5907185422532533 255 255 255
1.0074337009105883 0.15745091779706427 2.5793141923994063 255 255 255
-0.753614717778103 -0.2696834014393045 2.6059813858459258 255 255 255
0.6226950476648155 -0.6680273220657417 2.627004354394719 255 255 255
-1.11099007104423 -0.4951420633560112 2.623601097349381 255 255 255
-1.1133662663007693 -0.24264230113781543 2.6079432378449785 255 255 255
-0.8585639679935447 -0.173944021828757 2.603242125090294 255 255 255
0.4995714435589746 -0.7177312383533859 2.6301580390163437 255 255 255
0.7424445906154992 -0.003297791382056002 2.585228214422093 255 255 255
1.0346727709407875 -0.3923022843794613 2.6053622630954876 255 255 255
0.7036313303697539 -0.5765786174498717 2.620327718439006 255 255 255
1.0001636268748615 -0.2169765311377709 2.5921256269247652 255 255 255
1.1554930308280955 -0.09911637892660961 2.5887860092748483 255 255 255
0.5153781782393093 -0.5741026806300975 2.623973398746111 255 255 255
-0.9410655603511343 -0.32678895533614505 2.6141534856539606 255 255 255
-1.086087335146584 0.33513835929549096 2.565938330216528 255 255 255
1.0370478267877035 0.2810745654235717 2.5672259565290716 255 255 255
0.5198198175380015 -0.4531672284498744 2.613760730137403 255 255 255
0.8589757136970749 -0.16674984543889682 2.592449519451839 255 255 255
0.8674026470593326 -0.745965826569448 2.6281213347462553 255 255 255
0.7171921587623878 0.06069509829734349 2.587339680759816 255 255 255
0.8461351373511528 -0.0860066080606648 2.5906472782452963 255 255 255
-0.8874720904919399 0.07413897829857727 2.588654658498302 255 255 255
-1.0792859513223063 -0.5020771787925007 2.6233826895540804 255 255 255
0.8395223118184202 -0.6692098500315973 2.6284288878525888 255 255 255
0.8135539290777941 -0.2633634032678223 2.601406181691415 255 255 255
0.6394688579856552 -0.6644363499901861 2.6252010924329383 255 255 255
0.6699578074976257 -0.6338828539460508 2.6261486801816307 255 255 255
0.8208531464649244 -0.2054526654469428 2.5937616248718016 255 255 255
0.599384351863784 -0.296339310191755 2.602698824715462 255 255 255
-1.1346071710672903 0.4714466921420479 2.560117436757101 255 255 255
-0.06656982014294878 0.10004878631588225 1.9333524146494623 255 255 255
-0.8415890882026867 0.006183539381400669 2.5898913783646123 255 255 255
0.6280128443154503 -0.286464591907394 2.607041595127687 255 255 255
0.4620351072324362 -0.719362158776228 2.6333223620218287 255 255 255
-0.9788944052529471 -0.17639290226647772 2.6007534583729393 255 255 255
-1.0546986317949305 0.22862665811499108 2.5765526984539284 255 255 255
-0.7227196382648751 -0.6887370490915933 2.6405391620309535 255 255 255
-0.8130927266228095 -0.49399054613825233 2.6280820391209683 255 255 255
-0.6705121533055859 -0.29405751929284335 2.610992015157346 255 255 255
1.0956433129568899 -0.36103958109299944 2.5994212694412493 255 255 255
-1.0426510648612346 0.08442398322283802 2.591534131413953 255 255 255
0.9076276581828667 -0.7870168144505104 2.630429599270838 255 255 255
0.5835984117173262 -0.710476936267077 2.6328591953555702 255 255 255
-0.9984535874093334 0.2907916506982339 2.5708469660658344 255 255 255
-0.7632413652089022 -0.5496262881109558 2.635133482049737 255 255 255
0.9679444221285022 -0.08702028480077292 2.5922426263986544 255 255 255
0.41032336610191567 -0.7601312057629518 2.6369906985274087 255 255 255
0.4089872162500316 -0.6635727471515912 2.6264588493633574 255 255 255
-1.15044305127953 0.5042138893916678 2.519568728503257 255 255 255
0.7168018904154423 -0.19670226044123992 2.6020627313653892 255 255 255
-0.8753948621502903 -0.5055577077710777 2.625828720297183 255 255 255
0.5577391195605441 -0.2892450469769966 2.6029713615422487 255 255 255
-0.9174783403997104 -0.03198178199229306 2.592719202274843 255 255 255
0.594439038565016 -0.632295337968909 2.626583441825927 255 255 255
0.7122129783965149 -0.0013195328378605106 2.585601922054732 255 255 255
0.7126368327784822 -0.7340812354035472 2.630443627364452 255 255 255
1.0244796164035668 0.6281763296302401 2.5091228455136774 255 255 255
0.7452129473359297 -0.29597134652581475 2.6078330677088304 255 255 255
0.9027415606743113 -0.371215298638767 2.60516320684199 255 255 255
0.9502242278347713 0.012799797664554424 2.5815626300902506 255 255 255
0.7820222158981838 -0.9095362135186601 2.6402528854239047 255 255 255
-0.9342857105037071 -0.5177467472749276 2.6273388017839276 255 255 255
-1.1625329830482718 0.014477579388670104 2.5901950413289208 255 255 255
-0.8894337214531268 -0.22975670650920962 2.6028055940271178 255 255 255
-0.8890402226240981 -0.15045371708298516 2.5984569898178385 255 255 255
1.209623890914417 -0.7998333421332684 2.6285897898434527 255 255 255
-0.8592238672402064 0.07427886641389543 2.5879229508986743 255 255 255
-1.1692937078604517 0.35181946769919525 2.567098091825714 255 255 255
0.7865494051565775 -0.47536224719929737 2.614159256441074 255 255 255
-1.0558884559439374 -0.1295987939668981 2.59909515902004 255 255 255
-0.834465812357806 -0.2606756948365115 2.6026497361583107 255 255 255
0.5441525800093884 -0.29200864223141515 2.601946497070909 255 255 255
-1.1689732232596972 0.23055554931585526 2.5734504916622734 255 255 255
1.0335343782294464 -0.8849826831428254 2.639710388519843 255 255 255
0.511724293872552 -0.2870257580164676 2.6066617663451317 255 255 255
0.5409198367662049 -0.5742515376746118 2.624078458721312 255 255 255
-0.6345018882003757 -0.7483587870037174 2.646217445119772 255 255 255
-1.0664856045654816 -0.11838106808580345 2.5969019050508604 255 255 255
1.1357328841760255 0.05647617538642427 2.576972022336073 255 255 255
0.9886188542680361 -0.21061872004762916 2.5928057775810975 255 255 255
-1.170043002629275 -0.6411702507714074 2.6456066192822654 255 255 255
-0.9215323462619641 -0.14823035080952798 2.598968529944211 255 255 255
1.1349516928183356 -0.18448061346372102 2.5918503063833156 255 255 255
0.5884630418835815 -0.6420591533276452 2.6241643587663166 255 255 255
0.7937425762817035 -0.6412658370162152 2.625803971966239 255 255 255
0.7134312982865011 -0.3793609295484306 2.614033412880816 255 255 255
1.0626611037939517 -0.7825541685061922 2.637200195242606 255 255 255
-0.9250403463551692 -0.4034420739469972 2.6208493612659303 255 255 255
-1.153699633985062 -0.19676170992804173 2.600288182946676 255 255 255
-1.1937113426563042 0.32193281706971527 2.570455841490969 255 255 255
-0.24663770470058768 0.2683727314943005 1.8221720017099687 255 255 255
1.128661717536868 0.49236873734767694 2.561591805083025 255 255 255
0.9523936072558477 0.08546391363070811 2.576208833367842 255 255 255
0.6677839691663708 0.0041016405380830115 2.5837391532329885 255 255 255
-1.1105482848192592 -0.2892765234043669 2.6080234106501394 255 255 255
0.9357686514891992 -0.10221965371051946 2.5943191015268616 255 255 255
-1.1919420974202237 -0.6188797909669035 2.6406656916689544 255 255 255
-0.85930203223044 -0.11801528680116792 2.598190882303352 255 255 255
0.6508199047703273 -0.46686834568448676 2.6155094845208944 255 255 255
0.8504958366574381 0.2950017601834925 2.5771608662067753 255 255 255
0.606819802767114 -0.3767607920366438 2.6059847356571124 255 255 255
-1.0001679119711446 -0.6808979074047382 2.6445495010138966 255 255 255
-0.6617705713044552 -0.4795753695522096 2.622508598793008 255 255 255
-1.0810084610757267 -0.6824981975754657 2.6446427497812124 255 255 255
0.828992904443689 -0.7712697536600442 2.6324283608779844 255 255 255
0.7567300266279003 -0.11099686567779761 2.5932991857009506 255 255 255
1.033523380783783 -0.5895262696635629 2.615482075224466 255 255 255
-1.1379750779434006 -0.6427512559159333 2.6401384307309708 255 255 255
0.7939438784446783 -0.37830192004303625 2.6103754350695887 255 255 255
0.9357949938964424 -0.38364338324969305 2.6074112178777606 255 255 255
-1.2320771999866031 -0.5739029294604189 2.633935742109816 255 255 255
0.5933724188951561 -0.46505085088049714 2.6169139190543236 255 255 255
0.9376966344044783 0.22330490015529597 2.5734440474516718 255 255 255
-0.9142883367690754 0.1262089561384869 2.579224203252447 255 255 255
-0.7375035074530639 -0.5668504074013807 2.628450384381602 255 255 255
-1.0436235332987445 -0.5880019390842582 2.636825145527195 255 255 255
-0.7702392258810278 -0.6865934136521389 2.6421453250312568 255 255 255
0.9135320837458575 -0.4733716615082553 2.6125197206595945 255 255 255
-1.2238535046833865 0.4472815338014667 2.5634302583229607 255 255 255
0.42907410190983386 -0.4700786994548978 2.620309527287849 255 255 255
-0.9436727841823896 0.14238208872789032 2.581643259284614 255 255 255
0.6675535238659525 -0.5798004630113601 2.622144895102547 255 255 255
0.5054116748759602 -0.4889861270767874 2.614972741709531 255 255 255
-0.6483692053237997 -0.6998244339690565 2.6488476350106476 255 255 255
1.1689835327191977 0.22693773425502506 2.572276231693029 255 255 255
1.201006169012506 0.49998012451302637 2.5582255668326757 255 255 255
0.8824736862641238 -0.7255891646407352 2.6290321248136572 255 255 255
-0.8041727509415977 -0.04211993606492692 2.5939176693845676 255 255 255
0.9497817765661896 -0.8001283467064978 2.630276899974551 255 255 255
-0.9477301464800644 0.3561089670769955 2.574295016177231 255 255 255
1.145041614459913 0.10334274552590435 2.5756476630148004 255 255 255
-0.661283813313907 -0.3348133291151766 2.6111848148324324 255 255 255
0.729133570782163 -0.02277409411115956 2.586684177430584 255 255 255
-0.6873596912718833 -0.4005848223378134 2.6208742809244927 255 255 255
0.9114664000216613 -0.1032481306268229 2.591960787400134 255 255 255
-0.9883587508847796 -0.40083688510279925 2.6168519349529724 255 255 255
0.7323057844173767 -0.6614371634591019 2.626045321516322 255 255 255
0.7310708159143275 -0.6429572134966088 2.6275101186739045 255 255 255
-1.1341704130729109 0.4793042805586223 2.5434137430217536 255 255 255
0.6812951832360811 -0.8878932941440592 2.639722840845005 255 255 255
1.167712611457641 -0.6959115793645071 2.6220993181640533 255 255 255
-0.8619439234623807 -0.14196533159863167 2.601964301497676 255 255 255
-0.9253638756590735 0.4230297347404159 2.566945768840275 255 255 255
0.7442663991781124 0.06454607044780854 2.5855090673210297 255 255 255
-0.702439445126331 -0.2586046811376313 2.6096065837141387 255 255 255
0.7298468283738103 -0.7741254532955624 2.63384528351135 255 255 255
0.36024592163636726 -0.736827693353668 2.636234820604484 255 255 255
-0.9467681540541285 -0.17724578310779612 2.608952755972448 255 255 255
-1.2396676609394897 -0.6293093006029928 2.6356247538027557 255 255 255
-0.8530346560929621 0.02994522032329857 2.5878601568599255 255 255 255
0.47089927032796586 -0.6211750884179784 2.624131035227856 255 255 255
0.4301491141651548 -0.849697069610143 2.6401770352138967 255 255 255
-1.1624596131018765 0.44387850949277036 2.5624704550667956 255 255 255
-0.9534967708631843 0.4338123849981021 2.570775290829087 255 255 255
0.7247333761833921 0.04675815177024529 2.5835317188943443 255 255 255
-1.1575091426811634 -0.6630362133965086 2.6429340548022204 255 255 255
-1.1284551153996698 -0.6779450492074415 2.6447415211806136 255 255 255
1.031719683669751 -0.2093928119719205 2.5922535010036896 255 255 255
1.1697985814265004 0.5215163053502351 2.554805774806749 255 255 255
0.6579156880796567 0.03757234006039246 2.583789627300205 255 255 255
0.4828896415433919 -0.6654696795445266 2.6266514236927234 255 255 255
1.1722230247946226 -0.39036023880622134 2.601505946481832 255 255 255
-1.1759029802754257 0.23811947893624566 2.5757902682061564 255 255 255
1.1203563614954588 -0.17787613715139922 2.5903596871030437 255 255 255
-0.9669717424081159 -0.05721252933376064 2.5904498338467654 255 255 255
0.7493561482838965 -0.39596343664227884 2.607470827001062 255 255 255
0.7138203347939313 -0.5810662149427374 2.6198174774739282 255 255 255
0.7519414008672456 -0.4640080959788417 2.6104883989290024 255 255 255
-0.9408900293224078 -0.6686870304433612 2.6415624691837953 255 255 255
0.7911405518844423 -0.39190008965866774 2.608843600041586 255 255 255
0.451550081028687 -0.6575824961462632 2.6273686005181047 255 255 255
1.1514174644256991 0.08376015441389915 2.576851116885214 255 255 255
0.8242347693963501 -0.020793545180199914 2.5886263866929182 255 255 255
0.6921735403512901 0.04033588839093208 2.5823430510797856 255 255 255
-1.1791823456183184 0.06381610914306665 2.581277205516948 255 255 255
-0.7645069176687835 -0.2600251755930325 2.60875750835461 255 255 255
1.137714733495598 -0.7952873276726724 2.636606960532699 255 255 255
0.8228095471824458 -0.7758194809438889 2.6329964025999617 255 255 255
-1.0593700958148924 -0.17445991813817083 2.605491704137791 255 255 255
-1.0388906223918675 -0.5550845150114863 2.6332381398940963 255 255 255
0.36476577097911744 -0.8509073789312238 2.6442040054495277 255 255 255
0.8373215977517232 -0.5763770799884433 2.62505051487617 255 255 255
0.7829226701328352 -0.5973677449088611 2.6199056124447204 255 255 255
-1.063601389906722 0.3856470014652543 2.5656025149089343 255 255 255
0.8817267821894947 -0.37536946367977936 2.6055713153497178 255 255 255
0.8100761556988656 -0.06079655415425297 2.5902494707275197 255 255 255
0.534410426425479 -0.5992427428188359 2.622653587538888 255 255 255
0.9085743360592929 -0.798355156680111 2.632111247299115 255 255 255
-0.95052359396284 -0.16604462815944898 2.6038013336793155 255 255 255
1.2024972748818907 -0.7060220688513681 2.620752864714151 255 255 255
-1.067901292433679 0.028685773009814418 2.5873903279131416 255 255 255
0.9837600455208627 0.08974752591719799 2.576876646381319 255 255 255
-1.1708945097349401 -0.4045483457512826 2.616004262074718 255 255 255
1.0882429593565237 -0.8848621254585541 2.6359053555312033 255 255 255
-0.6043276013462958 -0.6014675884160133 2.6370175294757665 255 255 255
0.8334691652416799 -0.08234070112723835 2.5897278737228575 255 255 255
-0.5634868237884051 -0.6105961800984824 2.63151682245177 255 255 255
0.5740198872170026 -0.48161013049310253 2.6150895550440367 255 255 255
0.30780046675608447 -0.7102702605598686 2.6308810166440857 255 255 255
-0.636979694408899 -0.7297950392821444 2.642606509541163 255 255 255
-0.9344636372755165 0.16769893843468475 2.5805850420198495 255 255 255
1.1061410238109226 -0.19603258995332087 2.5891371123401847 255 255 255
0.7492118522503871 -0.6634517006682542 2.62741410829565 255 255 255
0.4914639583936729 -0.46142410548656293 2.6148308968469256 255 255 255
0.7211324126022605 -0.7384479664652088 2.629107184069281 255 255 255
1.1595326002633013 -0.10311465680701667 2.5883535138224514 255 255 255
-0.5641050079894377 -0.6782954382510403 2.6374005402321776 255 255 255
0.5435738401479706 -0.47777471911427993 2.6183947407607184 255 255 255
-1.089854954311406 0.17161786678427388 2.574085820248037 255 255 255
0.6022997899486792 -0.646862443345856 2.62212918236472 255 255 255
-0.8416139320020503 -0.011251206712560682 2.5882709902016456 255 255 255
-0.9818574318117731 -0.033442534015812674 2.590254023353477 255 255 255
-0.9415635862796762 0.1999072631783738 2.577363795917598 255 255 255
0.392575974230073 -0.8685526771907137 2.645264840702055 255 255 255
-0.9672494161320021 0.13571510501439352 2.586728018532799 255 255 255
1.22344304715309 0.5738740641227525 2.509162068975456 255 255 255
-1.163159074989964 0.01826109503378401 2.594217282055626 255 255 255
-0.9048444983018132 -0.10136494897229001 2.5934262629615787 255 255 255
0.6379995671617847 0.09687390140155426 2.5797913283402663 255 255 255
1.1546822178316862 -0.5969701925329964 2.614986783582703 255 255 255
-1.2337283029124086 -0.4103431013781995 2.6167724861854933 255 255 255
-0.7915133583925386 0.2835133778657197 2.3167908087635243 255 255 255
0.7690662522531028 0.4954411888920629 2.5653467818427615 255 255 255
0.5200792537237457 -0.3768369807423118 2.608597885903325 255 255 255
0.8524486443686495 -0.057447835080982994 2.587412559127155 255 255 255
0.5712218070861861 -0.5744954468076834 2.620902696029202 255 255 255
1.059323448968414 -0.4768779399044663 2.611428508687184 255 255 255
-1.12190374680331 -0.23918827807567344 2.606898676515919 255 255 255
-1.0388339109730027 0.3554744313723565 2.5672724662251953 255 255 255
0.8723719312880445 0.1556283277208237 2.5772377349963467 255 255 255
-1.1886609121742064 0.15024540118538682 2.5794399410696016 255 255 255
0.782813348808063 0.09953723044516581 2.5792458302657204 255 255 255
0.6910894689814505 -0.12147423732257309 2.588576068874349 255 255 255
0.38932533275748027 -0.6799896076401006 2.6259745468784383 255 255 255
-0.6964086568892646 -0.2556423752924085 2.610724119604091 255 255 255
0.7570034121962648 -0.1000270530137995 2.5929118363181587 255 255 255
0.6398580391091235 -0.4473470342481008 2.611763398139172 255 255 255
-0.5910349737263556 -0.6011010129186488 2.6346876259782417 255 255 255
0.3504257216587638 -0.7101792354828099 2.630293928327201 255 255 255
-0.6326342795083664 -0.6701676428964624 2.64058126159619 255 255 255
0.8079800526792886 -0.22709979668996705 2.598643248009196 255 255 255
-1.1336624695970021 -0.3272303863639917 2.6094149525609653 255 255 255
0.46704372282733586 -0.4509527026752256 2.6162162927377537 255 255 255
0.37120693301296287 -0.810389871853239 2.6382691618145464 255 255 255
-1.1172752145400897 -0.28174299241402945 2.605016464167786 255 255 255
0.8240276673741498 -0.3238246861099547 2.602776671781404 255 255 255
-0.9696232731392458 0.4250136442645178 2.5690386330225192 255 255 255
0.5515098272403024 -0.8784103564871875 2.642176636621312 255 255 255
0.9950987843084383 -0.5796962722050936 2.615625371496139 255 255 255
0.7011063157080015 -0.535950300971731 2.6159425466972897 255 255 255
0.6515933222150281 -0.013790755969743879 2.5883625137474615 255 255 255
-0.9208070523760635 -0.3367630060193283 2.6144937816621354 255 255 255
0.48375878989467364 -0.8254437354118467 2.6372524008700498 255 255 255
-0.9715318631779918 0.005211810451661126 2.588199763266206 255 255 255
0.6323132539581389 -0.48993816912887245 2.613460383558031 255 255 255
0.6819263492593911 -0.8129394985330852 2.635748812912143 255 255 255
0.7653617569795125 -0.6146249103342224 2.6188827453584436 255 255 255
-1.1454469465761346 -0.46065402677690415 2.6209192856391774 255 255 255
0.5379113152519579 -0.8298885898905809 2.638270488910287 255 255 255
0.5488115344852861 -0.7062633505788635 2.634142456071413 255 255 255
0.6584715891914561 -0.28568295886558026 2.6060570089574058 255 255 255
1.1898910176002324 -0.5587180978807796 2.612543368271007 255 255 255
0.7449000231138018 -0.2212230565183388 2.5993274256506207 255 255 255
-1.153528676045451 -0.5959329275595194 2.6349956709955076 255 255 255
1.0380378597923028 0.11868453026630556 2.5771798858434236 255 255 255
0.4089378986996442 -0.817340959164002 2.6374373481510234 255 255 255
-0.9527228112764271 0.221849093638628 2.5762988724320612 255 255 255
0.15333378153310376 0.12211913450157373 2.4864927465298234 255 255 255
0.6941772691561305 -0.6785278804629259 2.625495044048789 255 255 255
-0.8348365480713874 -0.08041539127430293 2.597706334856363 255 255 255
0.658518087667805 -0.2857282336446777 2.6062748453615536 255 255 255
-1.0925258700613403 -0.13166500927087676 2.5953741541742796 255 255 255
0.9410510002773359 -0.8584999501549965 2.634077492712752 255 255 255
0.34228874314450686 -0.6604463310173827 2.627264531639955 255 255 255
-1.0583452214311766 -0.6837148685346114 2.6451334520507093 255 255 255
0.8189977156043668 -0.5875511896497831 2.619405193220146 255 255 255
0.7019217844805166 -0.8607141124762182 2.6416804740587105 255 255 255
-1.095960542777571 -0.6252260951972985 2.638896053252524 255 255 255
1.1778341051116823 -0.3386485423084509 2.596624356669734 255 255 255
-1.2225402322272367 -0.2779074690907596 2.605052436475885 255 255 255
1.0967894453795546 -0.22820028022537805 2.596951553544572 255 255 255
0.8942859462771067 -0.49396953612771616 2.6153861128689875 255 255 255
0.5154183699442815 -0.4514038982392951 2.614669721826157 255 255 255
0.8024254035933781 -0.6653620953931964 2.6270294200838262 255 255 255
0.48966530367877575 -0.8769802996474159 2.6408402905193875 255 255 255
-1.1252484847618243 0.07444921850434202 2.5862475087017436 255 255 255
0.8568908029833715 -0.7756801984583787 2.6306243675284824 255 255 255
0.6469355476170728 -0.6283657106535346 2.6254358427111946 255 255 255
-0.8427274480462926 -0.4109556398423977 2.6213367683787525 255 255 255
-1.042497394616881 0.41188893583693215 2.5669244973123155 255 255 255
-0.906664364397859 -0.3960159574323584 2.621582154221624 255 255 255
-0.8764045427173782 0.15109781710775969 2.5848162583994636 255 255 255
1.0685838409167434 -0.8082004576035832 2.629797950289503 255 255 255
0.9081270307359255 -0.5100760608749835 2.615698188648655 255 255 255
0.6574559600485722 -0.6608558517755533 2.6247424133666266 255 255 255
0.7383613940809118 -0.4800962645372201 2.618879171022603 255 255 255
-0.9962453413425978 -0.49364313973513957 2.625800899166355 255 255 255
-1.2122002507617338 0.3397328155661234 2.5660436020538056 255 255 255
0.9830612623869031 0.13857577182105035 2.5800792391249554 255 255 255
0.9572095119040958 0.05266187167988456 2.581089918019625 255 255 255
0.7450133382355517 -0.24468324215731274 2.598006136650142 255 255 255
0.8031582935031223 -0.69239483203796 2.6217391931355625 255 255 255
-0.686648852239968 -0.43045324584997025 2.6175939100418204 255 255 255
-1.1982500270526983 -0.624630111401078 2.6378929554120383 255 255 255
-1.0797810824824383 0.27606637077799284 2.5699653360176145 255 255 255
0.8876228498858322 -0.18476855623527355 2.594744182366677 255 255 255
0.9898236669987168 -0.7227932753684548 2.623832768572543 255 255 255
-1.0929405310967704 0.28297228886682274 2.569793683845144 255 255 255
0.3508267319171861 -0.6893910146613987 2.628547581935545 255 255 255
1.1070775911764044 0.22209975544389213 2.5724366641745133 255 255 255
-0.7173388470286498 -0.686665559474117 2.643386560977387 255 255 255
0.48817263401523076 -0.6099090130894776 2.6277516438218473 255 255 255
0.475591084399011 -0.7820137679182199 2.6359388855486605 255 255 255
0.8593344799937644 -0.6395522576247574 2.6225033867028125 255 255 255
-0.6342053315300165 -0.7582363675156453 2.6434340774827874 255 255 255
-1.0013677798881646 0.30781149290306 2.5693416302843497 255 255 255
0.8918642803187616 -0.3174491786043971 2.5993397535976617 255 255 255
0.9434304505194392 0.14949072315807593 2.5779114740025064 255 255 255
-1.0585045159954867 0.10083600021526566 2.581032381835984 255 255 255
0.752862111946838 -0.6419498885604953 2.6246383406396876 255 255 255
-0.8602073725156751 -0.5968625182999314 2.6351040547007996 255 255 255
0.4784844193889223 -0.70338282531128 2.6300392703174342 255 255 255
0.5972591957601583 -0.7661123492814744 2.6393357348714086 255 255 255
0.721944685252991 -0.31262007186631485 2.601027466363364 255 255 255
-1.188954659439735 -0.4031247541831193 2.6149517594903293 255 255 255
0.5179002570608224 -0.37420116352084815 2.6090026245550226 255 255 255
0.6753897202679525 -0.48655099766618676 2.6130195772771643 255 255 255
0.7010493252802009 0.05610902033611594 2.5861315422245323 255 255 255
1.0137729403437596 -0.6845908369514959 2.6258715880388666 255 255 255
0.5996370977208721 -0.6376095677546305 2.6250220372100235 255 255 255
0.46791618430485943 -0.8668494527072457 2.6422379192174525 255 255 255
0.675029781655371 -0.44896262292070016 2.620305377427269 255 255 255
0.3989660633164182 -0.4600238839066075 2.6148319843486494 255 255 255
0.9630612755180051 -0.10095346950803943 2.5891816853116136 255 255 255
-1.0755628639400276 0.29209936087332267 2.5668384902294474 255 255 255
-1.2237197703377032 0.22215613155543282 2.5730415177228214 255 255 255
-1.0266137288453843 -0.5486928071761326 2.631915704323209 255 255 255
0.4510497762466943 -0.7562188192711257 2.637285195437045 255 255 255
0.6417769894182676 -0.7215992955782284 2.6327901102685307 255 255 255
-1.0164426153904667 -0.20779268454655686 2.605092231119084 255 255 255
-1.0353935625267294 0.520315190863267 2.5193895740536476 255 255 255
-0.7464982931516742 -0.5634990182020162 2.630971442328195 255 255 255
1.0041651020006495 -0.09219309647951603 2.591313455794156 255 255 255
0.9891987612831791 -0.3838541987739909 2.596671782776768 255 255 255
-0.9926684924226891 -0.17846979691808165 2.602945984084568 255 255 255
0.4931717382944546 -0.8501731048096756 2.6409662627777517 255 255 255
0.7976400850150688 -0.07408891259292907 2.591515223646398 255 255 255
0.6853547215030388 -0.5771967199795859 2.6211768517364575 255 255 255
0.4079082211394754 -0.49437606069648715 2.6149735164163115 255 255 255
0.4167090951250387 -0.6982390812478972 2.6311506189960308 255 255 255
1.026784259442205 -0.5645555153924594 2.6156297895300704 255 255 255
0.3953114800798215 -0.8002316485372513 2.633704775944691 255 255 255
-0.7001554370372417 -0.3120123564512079 2.6089040186797856 255 255 255
0.9856488321546828 -0.26526663518699733 2.595839868960326 255 255 255
-1.0592041347632353 0.4348593904357749 2.564724076556887 255 255 255
-0.9662889124530677 0.07879974602785131 2.586763646589663 255 255 255
-0.8492305899056148 -0.40596340594668373 2.619400992926761 255 255 255
0.4761317213406468 -0.5458971453866795 2.624666832505473 255 255 255
0.3840957578948322 -0.8885092392997354 2.646478366266035 255 255 255
0.8948021909067335 -0.811637416891487 2.6316409703848596 255 255 255
-1.2086056463243495 0.35357327233840324 2.568311215619336 255 255 255
0.497873106718446 -0.6194474766269596 2.6257572828743787 255 255 255
0.41285363088483135 -0.8602811956540413 2.6436178489698565 255 255 255
1.185497881208486 -0.2205194490781302 2.5923052936562434 255 255 255
-1.108542271104371 -0.32049326702721825 2.6028084868136387 255 255 255
-0.9126018370368969 -0.5262715281017114 2.6264543222754817 255 255 255
1.0426273205312027 -0.4984498271251683 2.612407694985968 255 255 255
1.0723802456416018 -0.2793788942980367 2.5957967394742973 255 255 255
-0.9596800753904156 -0.6310067784048112 2.633643514408593 255 255 255
-1.1021002416569032 0.4808255541311207 2.5429101637641702 255 255 255
0.8720530812543246 -0.28233369465108765 2.5995009627312022 255 255 255
-0.8294432606335322 -0.43560823777205687 2.619373555374484 255 255 255
-1.09602995615641 -0.14290783795052195 2.5982662038809266 255 255 255
-1.1584119006516849 0.12502391810000837 2.5821580032175455 255 255 255
-0.6550634602101042 -0.7222313141493426 2.6429887401947423 255 255 255
0.820531691850025 -0.6126455427837592 2.620048187941339 255 255 255
0.338747658525213 -0.7422891728406784 2.6342897185162037 255 255 255
0.6835315547298704 0.07093150759540998 2.589475043241643 255 255 255
1.0614629232809298 -0.40505649457613546 2.60435967140764 255 255 255
-1.1760369951170169 0.3261434439812939 2.5677772914177304 255 255 255
1.107550631475476 -0.2089359885622654 2.5938752261466913 255 255 255
-0.8181762324290662 0.00853624052655466 2.5843355004870956 255 255 255
1.0725654335018986 -0.0019050054445592368 2.5860368146543635 255 255 255
0.7182174680796559 -0.7402861203013056 2.633582299694274 255 255 255
0.5931917283040402 -0.5533428951753784 2.622429083788677 255 255 255
-0.2967363734316555 0.2552318576340625 1.8291161826355593 255 255 255
-1.0647615533337491 -0.5075923092607277 2.625833085219055 255 255 255
-0.6710685736591366 -0.4198336407321614 2.618721482497616 255 255 255
-1.2034613569692483 -0.4819040950751502 2.627802460608973 255 255 255
0.6879622813017867 -0.15956259704364187 2.591783099940431 255 255 255
0.9123675520145331 -0.19037542094280238 2.5939544811586384 255 255 255
0.39555656411967016 -0.09023742551786984 2.4725347879921546 255 255 255
1.0524727794795556 -0.019378322904980948 2.5835993337780807 255 255 255
0.5442159066643045 -0.5920966017279587 2.6216015982386116 255 255 255
-0.648241550781036 0.21381877979984854 2.3502617269588795 255 255 255
-1.1468387394475974 0.19214726234680224 2.5757912381481454 255 255 255
-1.1311187940635015 -0.3417794632369964 2.610443674162912 255 255 255
-1.2240144172468614 0.06646073981369412 2.5818256336633167 255 255 255
0.5686412794839963 -0.7527708712984092 2.6314929995428575 255 255 255
-0.5567329119170074 -0.6467453904663892 2.6350379212950275 255 255 255
-1.1180896430147906 0.47370995658669746 2.559039249261993 255 255 255
0.7068687497577908 -0.3150558148857134 2.6033881075975724 255 255 255
-0.7274038989259648 -0.6163913082085073 2.6331552280346995 255 255 255
0.591720360965656 -0.3037033186251559 2.6037145666459387 255 255 255
-1.0455470687964215 0.2847917790580802 2.5725432434444917 255 255 255
-1.1023064094232868 0.061374272200288967 2.5861016705596795 255 255 255
-1.1713042950114938 0.22159958214680436 2.5687278633315644 255 255 255
1.0463298872230515 0.38037323243718085 2.5683828180332045 255 255 255
-1.0667045661562307 0.22573062729529633 2.5741205360694703 255 255 255
0.5141914411751265 -0.8770844673654691 2.64230191872761 255 255 255
0.7636505583415716 -0.3852341205782903 2.609567412161856 255 255 255
-1.1248271059568837 0.3390586398789326 2.5657665584694564 255 255 255
-1.1006254018076567 0.3265500126287403 2.5715099800053443 255 255 255
0.7406884445142145 -0.7596357221874361 2.6313019275906813 255 255 255
1.1119526141159533 0.10113808137687615 2.5778037404947267 255 255 255
0.5826336343429607 -0.2666162593675009 2.59906273332542 255 255 255
-0.7322681701071307 -0.4649844482132024 2.6201464481710883 255 255 255
0.9400242609034786 -0.47505216351266194 2.61333449507654 255 255 255
0.25423419676243997 0.21787495962768727 2.3553649452393386 255 255 255
0.7854372982569676 -0.8941101968502674 2.642138848400657 255 255 255
0.6232240180888541 -0.5821198144128555 2.6218191542364426 255 255 255
-0.9336851290774921 0.26871788015995185 2.574215310230509 255 255 255
0.6793471962874831 -0.7752321748466646 2.638604796466255 255 255 255
-1.18608126311332 0.47769860803007963 2.550308225377059 255 255 255
-0.9156666929692104 0.41892139186899013 2.5653807531193036 255 255 255
-1.0639610579155072 -0.07810679179852763 2.5938322471884576 255 255 255
0.9288793633366312 -0.8831876125688608 2.6402722948805595 255 255 255
1.1062182485445422 -0.035561372416171855 2.5828384864128484 255 255 255
-0.9966277603528552 -0.4933962264326253 2.626132892880661 255 255 255
-0.7007622705424424 -0.6270313401614966 2.633335274312219 255 255 255
0.7152284446507934 -0.8716418803895228 2.6422363451812956 255 255 255
-1.014780967146443 -0.10404257777940643 2.5937943838787376 255 255 255
0.6270950495937133 -0.2719505311400038 2.6022622204578303 255 255 255
-1.1285908929687825 0.0838115006665164 2.5893085447537225 255 255 255
-1.2299564906523859 -0.16754124053318895 2.6001130775540737 255 255 255
-0.9929229924811925 -0.03511967666058575 2.5950472313598336 255 255 255
0.6646385147482671 0.0619567074984669 2.5883569774765727 255 255 255
-1.1703840249918571 -0.49339504794889083 2.6288279697658417 255 255 255
-1.1926966425849628 0.2602305193052212 2.569605021559993 255 255 255
1.0735741559433956 0.5606211182147711 2.514504055632042 255 255 255
-0.855310907691939 -0.5820954528542287 2.6351704060719943 255 255 255
0.7437659936439047 -0.4682160836980108 2.6168619013481047 255 255 255
-1.1986778877059843 0.16013480415742795 2.5774062414098795 255 255 255
-1.1490188116511486 0.11160511853752277 2.5808612636984067 255 255 255
1.2012669187235625 -0.899926939462905 2.6360678732112253 255 255 255
0.8850802461027701 -0.28007062905106733 2.6021543921100942 255 255 255
-0.8868429326512693 -0.0590688997557997 2.59535434357782 255 255 255
0.863731356772371 -0.17702933841324847 2.5956320642655757 255 255 255
0.9114970998085323 0.12793463175795144 2.586784392279445 255 255 255
-1.0299890497981372 -0.20472246724162807 2.6037392444469654 255 255 255
1.0754630409841768 -0.19448119029294886 2.5945124316124732 255 255 255
0.44443169645823055 -0.7888441688536688 2.635457737093645 255 255 255
0.6774163204144699 -0.673445790950196 2.6279270618539416 255 255 255
0.36226000236658695 -0.7445791697501639 2.6366348516757947 255 255 255
0.9545765559571653 0.0007344135955743626 2.5860021347535924 255 255 255
1.0043075449174939 -0.5025899613914859 2.6117165338194295 255 255 255
-1.0688176117148926 -0.28039738085003924 2.6064112730130917 255 255 255
0.8373116807171034 0.2283115312390159 2.5776652446203467 255 255 255
-0.6505044899957408 -0.6198096664456495 2.636924261385814 255 255 255
-1.2156471221970153 0.47382942160263763 2.5588721986540053 255 255 255
-0.687810748440208 -0.7023306507752294 2.64635141859679 255 255 255
-1.1656365929707881 -0.20709495950929355 2.6008086437808613 255 255 255
-0.6919731652041644 -0.5656207273016892 2.629393563141005 255 255 255
-1.1359802025249703 -0.5376633418875998 2.6320198790125975 255 255 255
-1.1851428566503959 0.06089292773613158 2.583983214841353 255 255 255
1.0605562320572535 -0.7736869219954551 2.637507128021454 255 255 255
1.0729043896681274 -0.14079233719445308 2.5894939609017413 255 255 255
0.514048552658991 -0.6073683719649126 2.6236223066897897 255 255 255
0.9088432885367114 -0.7471540429366749 2.627895083462848 255 255 255
-0.9787571034742463 -0.3766073501899494 2.616319459144336 255 255 255
0.6139146601661397 -0.663712146776252 2.627515131070237 255 255 255
0.9820903449093557 -0.0801410170034165 2.585945853379873 255 255 255
0.72082714517981 -0.8105352450472264 2.63344390741075 255 255 255
0.9794387618391508 -0.22816525763863837 2.594377527212054 255 255 255
-1.0239110247350653 0.35161106368510886 2.56964037762422 255 255 255
-0.9659725471055949 -0.16208243776591483 2.5995642432223547 255 255 255
-1.0636345867240637 0.27477498500194736 2.57170667336858 255 255 255
0.9437462375332156 -0.6878959938001251 2.6266050931368192 255 255 255
-1.027002958895914 -0.5160422100417729 2.6262802019254954 255 255 255
-1.1015260837047207 -0.5856700863899001 2.6322246578676425 255 255 255
1.0884073793186853 -0.57976015259351 2.6122471651324406 255 255 255
-1.0385336602391766 -0.6795333660069344 2.6457821900194007 255 255 255
-1.1926285182820566 -0.20257737377712004 2.6018624272197637 255 255 255
-1.1444367623324203 0.46572856845686916 2.5576740152953814 255 255 255
-0.9196443128969463 0.22876738248652198 2.581329101348151 255 255 255
-1.088211165748566 0.2927320848836187 2.564788362293527 255 255 255
-0.9441351566787263 0.3445222840066679 2.577405989054191 255 255 255
0.6638782951143124 -0.2571550718038599 2.5993116749066814 255 255 255
0.5170614998533593 -0.7678788126344263 2.64147675127277 255 255 255
0.49270948465313036 -0.8119281454510241 2.637262986084843 255 255 255
0.7128818110683389 -0.6107536279588884 2.619711229848808 255 255 255
1.0339306985017782 0.29353435856538695 2.5673905680415197 255 255 255
1.0552690754552352 -0.04010224037336523 2.5852615390470137 255 255 255
0.9912555977027585 -0.5965412346723785 2.615266639648449 255 255 255
0.28802857589013203 -0.7217025445344901 2.6320641061573253 255 255 255
-1.0258581471842478 -0.24828152202737191 2.607261189674415 255 255 255
-1.1343125832532968 -0.4812537115587012 2.6355501951424 255 255 255
0.5850054477980832 -0.2966342132867285 2.6051230816836726 255 255 255
-0.9955764956975172 0.14481907090544005 2.587792580764155 255 255 255
0.8242247487855823 0.21046358727913336 2.569291747653603 255 255 255
0.6446817244639824 -0.2809219969211873 2.6032468587584994 255 255 255
1.1467204579746129 -0.07194852754233753 2.5837840684182733 255 255 255
-1.0107104679843992 -0.03361892852381599 2.5908778091264626 255 255 255
-0.7523814631065917 -0.31135131301827584 2.6079644371460935 255 255 255
0.34901229082295726 -0.7515578605056168 2.6364989617785644 255 255 255
-0.850258530882485 -0.3221396769558673 2.609143592188277 255 255 255
0.6818164015488688 -0.47931480471314886 2.6139119724857895 255 255 255
-1.1850235553746036 -0.3229907495969439 2.608122750281618 255 255 255
-1.1629485804057966 -0.48936812634330534 2.6273592167511595 255 255 255
-0.1118532664944236 -0.2514574213171764 2.4745438965075293 255 255 255
0.8161076920421376 0.38092043323213987 2.57192325814782 255 255 255
0.6925746527036362 -0.45151968382553537 2.6120309005172224 255 255 255
-0.9586803567261482 0.17062798022125325 2.5772181238804053 255 255 255
-0.8928501414400808 -0.5097453016370345 2.6270317592823345 255 255 255
0.5880441595646615 -0.5706685673405214 2.620365538076304 255 255 255
-0.8994861845252576 -0.6444018641876859 2.6389949191983066 255 255 255
-1.0720519315681718 -0.6992209249231642 2.6441451101484468 255 255 255
0.5680761360761738 -0.7520944373333522 2.630727452774034 255 255 255
0.4037238167733301 -0.7719615703627344 2.6342200501938904 255 255 255
0.9530126828359421 0.025120253812376446 2.580816742751851 255 255 255
0.8345704468291409 -0.3202684588654807 2.6032903811404506 255 255 255
-0.9381908314200517 0.519618737629521 2.5216260152725565 255 255 255
-1.1917181581869114 -0.59637387204869 2.6337195349309717 255 255 255
0.8569389426431092 -0.38719191829754185 2.6107502284779116 255 255 255
0.9220351940024801 0.4527124071496201 2.561468886204062 255 255 255
0.3093324974112639 -0.7166334558338628 2.631391264951677 255 255 255
-1.1860740375567198 0.23052070999604662 2.57200584599723 255 255 255
-0.9123791234980372 -0.16595406843477475 2.598592425151955 255 255 255
-0.8820769460247097 -0.24694153558658333 2.607817357994951 255 255 255
0.76979551374799 -0.7830958648017146 2.634356127845578 255 255 255
0.7332981564996962 -0.8105277018212896 2.632997460810145 255 255 255
-0.8790720505920834 -0.3465291184495668 2.6148657799225266 255 255 255
-0.767476832175363 0.4539622824251129 2.3355061917596625 255 255 255
0.43854098985616063 -0.764679868364623 2.634041445690787 255 255 255
-1.1108583228833255 -0.36825054107431754 2.614087542804343 255 255 255
0.7235550194785733 -0.5704080598184558 2.6183542406637463 255 255 255
0.4196878004036857 -0.7810443505069323 2.636172329935736 255 255 255
0.9280396513990886 0.09186174653521363 2.575116069803733 255 255 255
-0.6642400533241524 -0.46930859565327915 2.6214770828396254 255 255 255
-0.908596243054245 -0.4288326787020931 2.62032719280075 255 255 255
-1.1182486142714398 -0.024267145187139957 2.588544833393311 255 255 255
0.8246972797214427 -0.46976476205696455 2.6137656067150923 255 255 255
-1.1564282117080888 0.150177289529977 2.5807246613981336 255 255 255
-1.16014542947472 0.32105942934246967 2.570913737899044 255 255 255
-0.8720387697460849 -0.017179822137685027 2.5893579706742624 255 255 255
1.0453038117524762 -0.3720728965413296 2.602932100221963 255 255 255
0.4435088809072908 -0.47647204564169554 2.6177790426674243 255 255 255
-0.9168626014127815 -0.17286930471140952 2.6066412807306514 255 255 255
-0.9996545193311425 0.43606716715080845 2.5631238825536866 255 255 255
-0.9138946746997857 -0.40186688990955893 2.620409160294622 255 255 255
-1.1395157502317428 -0.33044027132302906 2.611416377035903 255 255 255
-0.9513941428193807 0.08481845409741924 2.588785229702919 255 255 255
-0.9665207320592908 0.002991855076631815 2.5825631334711576 255 255 255
1.1747484264716792 0.5693888336499437 2.5099247540069594 255 255 255
0.7462928212226141 -0.5006819426377579 2.61402363465714 255 255 255
-0.7153629164864189 -0.5002645609212676 2.63133831921795 255 255 255
-1.13864268648369 0.3026726908898074 2.568071703873433 255 255 255
0.8078518332158696 -0.645552814701486 2.6237668259683686 255 255 255
0.519722047453713 -0.85575885149902 2.643802841964539 255 255 255
0.7206880248469864 -0.21433878095616032 2.59641239346504 255 255 255
