ply
    format ascii 1.0
    element vertex 73170
    property float x
    property float y
    property float z
    property uchar red
    property uchar green
    property uchar blue
    end_header
4.215429 2.957788 -17.886463 45 56 49
4.232558 2.953488 -17.860466 40 50 44
4.286969 2.975110 -17.991215 39 46 41
4.316716 2.979472 -18.017595 40 46 41
2.953603 2.005923 -12.130306 35 44 43
2.943249 1.988258 -12.023483 40 47 42
2.953125 1.984375 -12.000000 47 52 45
2.968750 1.984375 -12.000000 47 54 46
2.975657 1.978578 -11.964947 43 51 43
3.000000 1.984375 -12.000000 43 50 43
3.015625 1.984375 -12.000000 44 51 45
3.031250 1.984375 -12.000000 45 51 45
3.046875 1.984375 -12.000000 45 52 46
2.423493 1.570325 -9.496136 46 53 46
2.422752 1.561875 -9.445043 46 53 46
2.435050 1.561875 -9.445043 43 50 44
2.447348 1.561875 -9.445043 40 46 41
2.455871 1.559478 -9.430545 39 48 44
2.456837 1.552330 -9.387319 39 48 45
2.467175 1.551145 -9.380153 40 48 43
2.475610 1.548780 -9.365853 41 48 41
13.125000 7.937500 -48.000000 40 46 42
10.489426 6.138973 -37.123867 39 45 41
10.537765 6.138973 -37.123867 39 45 41
13.138686 7.416059 -44.846714 41 44 41
8.274599 4.649886 -28.118994 39 44 40
8.053215 4.505543 -27.246120 38 44 40
7.947712 4.427015 -26.771242 36 42 38
7.982571 4.427015 -26.771242 36 42 38
8.017429 4.427015 -26.771242 37 43 39
8.158940 4.485651 -27.125828 37 43 39
14.500000 7.937500 -48.000000 40 45 40
14.562500 7.937500 -48.000000 41 46 40
14.625000 7.937500 -48.000000 41 46 40
12.541936 6.554839 -39.638710 36 42 40
12.276730 6.389937 -38.641510 36 44 40
12.288402 6.369906 -38.520374 36 47 40
12.377358 6.389937 -38.641510 37 47 39
3.992551 1.891993 -11.441340 41 47 40
4.011184 1.893756 -11.452003 40 47 41
4.022346 1.891993 -11.441340 43 50 43
4.044776 1.895522 -11.462687 45 52 45
2.131816 0.963490 -5.826458 52 62 51
2.136364 0.962121 -5.818182 56 67 50
2.143939 0.962121 -5.818182 61 73 50
2.151515 0.962121 -5.818182 67 78 55
2.169363 0.966698 -5.845861 65 76 57
2.132353 0.933824 -5.647059 100 115 82
2.137741 0.932966 -5.641873 95 110 79
2.217371 0.964404 -5.831989 90 102 73
2.236641 0.969466 -5.862596 80 91 64
2.102293 0.895944 -5.417989 50 60 52
2.106561 0.894760 -5.410832 44 52 45
2.113606 0.894760 -5.410832 45 54 46
2.120652 0.894760 -5.410832 52 62 50
2.126760 0.894366 -5.408451 54 64 49
2.133803 0.894366 -5.408451 52 62 48
2.149359 0.897923 -5.429960 50 58 46
19.417477 6.576052 -39.766991 48 60 51
19.469255 6.576052 -39.766991 49 59 50
19.521036 6.576052 -39.766991 49 57 49
19.018867 6.389937 -38.641510 49 55 49
18.716049 6.271605 -37.925926 49 53 49
4.413793 1.459770 -8.827586 44 54 47
4.467005 1.473532 -8.910805 46 56 47
4.517922 1.486467 -8.989027 50 55 48
4.529627 1.486467 -8.989027 48 50 44
4.547986 1.488645 -9.002198 48 52 46
11.132867 3.552448 -21.482517 46 55 47
11.102609 3.533913 -21.370436 48 59 49
10.996564 3.491409 -21.113401 52 63 49
10.930153 3.461669 -20.933561 57 68 52
10.957411 3.461669 -20.933561 58 70 52
12.875740 4.007890 -24.236687 63 75 60
11.664885 3.622103 -21.903744 64 76 62
11.693404 3.622103 -21.903744 62 73 59
11.721925 3.622103 -21.903744 61 70 57
22.575342 6.958904 -42.082191 62 71 60
22.630136 6.958904 -42.082191 62 73 61
22.153847 6.795987 -41.096989 63 74 60
22.059801 6.750831 -40.823921 64 75 60
20.996845 6.410095 -38.763409 65 74 59
19.130434 5.521739 -33.391304 56 73 57
18.967741 5.462366 -33.032257 68 84 65
18.959785 5.447721 -32.943699 62 77 55
18.901333 5.418667 -32.768002 61 80 54
18.451948 5.277922 -31.916883 86 114 84
23.116882 6.597403 -39.896103 108 129 102
23.244299 6.618893 -40.026058 92 102 80
23.526316 6.684210 -40.421051 84 89 71
17.661837 4.908213 -29.681160 71 81 59
19.752022 5.477089 -33.121292 66 77 56
15.302904 4.215768 -25.493776 72 83 64
15.085714 4.146939 -25.077551 67 74 59
23.150000 6.350000 -38.400002 63 65 58
7.169231 1.953846 -11.815385 58 67 55
7.184616 1.953846 -11.815385 55 67 51
7.200000 1.953846 -11.815385 53 65 52
7.222329 1.955727 -11.826756 54 68 51
6.103896 1.649351 -9.974026 58 74 51
6.116883 1.649351 -9.974026 66 84 61
6.139837 1.652032 -9.990244 62 78 60
7.262956 1.950096 -11.792706 61 74 58
7.278311 1.950096 -11.792706 62 74 57
7.265774 1.942639 -11.747610 63 73 56
7.239544 1.931559 -11.680609 60 68 52
7.240987 1.927894 -11.658444 57 64 53
7.221908 1.918791 -11.603399 52 60 52
7.162617 1.899065 -11.484112 51 61 51
-3.490909 1.466182 -8.936728 65 79 58
-3.479273 1.466182 -8.936728 79 90 70
-3.465116 1.465116 -8.930233 77 88 70
-3.453488 1.465116 -8.930233 63 78 62
-3.436865 1.462990 -8.917272 62 72 60
-3.425254 1.462990 -8.917272 63 70 59
-3.413643 1.462990 -8.917272 65 72 61
-2.668185 1.147410 -6.993739 66 73 61
-2.648526 1.142857 -6.965986 68 77 61
-2.643952 1.144804 -6.977853 71 81 60
-3.410237 1.540107 -9.387319 66 81 55
-3.392830 1.537757 -9.372997 61 71 50
-3.388379 1.541284 -9.394495 78 81 63
-3.396923 1.550769 -9.452308 101 101 81
-3.384615 1.550769 -9.452308 104 109 85
-2.792357 1.284076 -7.826752 96 107 80
-2.782166 1.284076 -7.826752 96 111 84
-2.773741 1.284895 -7.831740 96 111 81
-2.765306 1.285714 -7.836735 81 95 64
-3.362890 1.655172 -10.088670 95 89 88
-3.338789 1.649755 -10.055647 144 131 136
-3.336617 1.655172 -10.088670 160 151 149
-3.787879 1.909091 -11.636364 237 250 246
-3.772727 1.909091 -11.636364 224 243 241
-3.757576 1.909091 -11.636364 225 246 245
-5.362279 2.735414 -16.672998 222 245 237
-2.990536 1.589905 -9.690852 219 239 241
-2.910226 1.573771 -9.592505 220 243 235
-2.897736 1.573771 -9.592505 213 236 222
-2.887500 1.575000 -9.600000 223 240 233
-2.897638 1.587402 -9.675591 227 243 243
-2.947368 1.768421 -10.778948 210 240 236
-2.933333 1.768421 -10.778948 107 156 133
-2.979409 1.804834 -11.000896 56 80 71
-2.989170 1.819495 -11.090253 142 122 147
-2.980108 1.822785 -11.110308 232 222 241
-1.492877 1.435897 -8.752137 171 158 150
-1.474132 1.428774 -8.708717 230 213 215
-1.462792 1.428774 -8.708717 253 248 248
-1.454545 1.431818 -8.727273 252 253 249
-1.765421 1.751520 -10.675934 252 254 248
-1.756098 1.756098 -10.703833 249 253 245
-1.742160 1.756098 -10.703833 247 252 244
-2.206897 2.242492 -13.668521 248 252 245
-1.965200 2.063460 -12.577277 245 251 248
-1.948823 2.063460 -12.577277 249 252 251
-1.932446 2.063460 -12.577277 252 253 250
-1.903590 2.067692 -12.603077 251 254 247
-3.982222 4.480000 -27.306667 241 248 241
-3.946667 4.480000 -27.306667 228 241 239
-3.911111 4.480000 -27.306667 214 234 238
-1.877333 2.688000 -16.384001 204 241 252
-1.841270 2.666667 -16.253969 204 240 253
-1.796345 2.631854 -16.041775 204 240 252
-1.775457 2.631854 -16.041775 203 239 252
-4.687500 7.875000 -48.000000 202 240 253
-4.625000 7.875000 -48.000000 202 240 253
-4.390977 7.578948 -46.195488 202 240 252
-4.500000 7.875000 -48.000000 201 240 252
-4.437500 7.875000 -48.000000 200 240 251
-4.375000 7.875000 -48.000000 199 239 251
-4.312500 7.875000 -48.000000 200 240 251
-1.049180 1.944069 -11.849566 201 240 253
-1.029779 1.936599 -11.804034 202 241 253
-1.013436 1.934741 -11.792706 203 241 250
-0.995215 1.929187 -11.758852 204 241 248
-0.979904 1.929187 -11.758852 206 241 250
-1.166667 2.333333 -14.222222 208 240 250
-1.731239 3.518325 -21.445026 208 240 250
-1.706294 3.524476 -21.482517 208 240 250
-1.675393 3.518325 -21.445026 205 240 249
-1.431711 3.164835 -19.290424 217 245 249
-1.402191 3.154930 -19.230047 221 245 250
-1.375000 3.150000 -19.200001 214 242 248
-1.350000 3.150000 -19.200001 206 240 247
-1.325000 3.150000 -19.200001 205 240 248
-1.308176 3.169811 -19.320755 206 240 249
-0.051876 0.933766 -5.691524 242 250 244
-0.044383 0.932039 -5.680999 239 249 243
-0.036917 0.930318 -5.670512 236 247 242
-0.029589 0.932039 -5.680999 231 245 241
1.000000 5.478261 -33.391304 217 233 236
1.043478 5.478261 -33.391304 215 229 232
0.554667 2.688000 -16.384001 220 229 231
0.575233 2.684421 -16.362185 223 230 230
0.597333 2.688000 -16.384001 231 237 237
0.772586 3.140187 -19.140186 227 234 232
0.795031 3.130435 -19.080746 231 237 236
0.784547 2.995542 -18.258543 235 240 239
0.808321 2.995542 -18.258543 237 241 241
0.830861 2.991098 -18.231455 237 242 242
0.858926 2.516854 -15.340824 238 244 232
0.864865 2.476659 -15.095823 239 245 235
5.125000 7.875000 -48.000000 45 51 50
5.187500 7.875000 -48.000000 45 51 49
5.250000 7.875000 -48.000000 46 51 47
5.312500 7.875000 -48.000000 45 49 45
5.375000 7.875000 -48.000000 43 47 45
5.437500 7.875000 -48.000000 42 46 45
5.500000 7.875000 -48.000000 42 48 47
5.562500 7.875000 -48.000000 43 50 48
5.625000 7.875000 -48.000000 41 48 46
5.653710 7.123675 -43.420494 51 62 53
5.670176 7.073684 -43.115791 49 59 50
5.726316 7.073684 -43.115791 47 55 47
5.722222 7.000000 -42.666668 46 52 45
5.640678 6.833898 -41.654236 46 52 49
5.581395 6.697674 -40.823921 46 52 51
5.597360 6.653465 -40.554455 45 51 50
5.613115 6.609836 -40.288525 45 51 50
5.665574 6.609836 -40.288525 43 50 50
5.736842 6.631579 -40.421051 41 49 48
4.184249 2.995542 -18.258543 47 59 51
4.164706 2.964706 -18.070589 51 63 54
4.157664 2.943066 -17.938686 53 65 54
4.168850 2.934498 -17.886463 53 65 54
4.192140 2.934498 -17.886463 52 64 53
4.209302 2.930233 -17.860466 47 59 50
4.232558 2.930233 -17.860466 42 54 46
4.255814 2.930233 -17.860466 41 48 42
2.961194 2.005970 -12.226866 41 47 43
2.953603 1.990128 -12.130306 40 47 43
2.943249 1.972603 -12.023483 41 46 42
2.953125 1.968750 -12.000000 45 52 44
2.960078 1.962999 -11.964947 45 53 44
2.975657 1.962999 -11.964947 43 52 45
3.000000 1.968750 -12.000000 43 51 45
3.015625 1.968750 -12.000000 44 51 45
3.031250 1.968750 -12.000000 44 50 44
3.026188 1.955383 -11.918526 42 49 43
2.403065 1.544828 -9.416092 41 49 43
2.420891 1.548387 -9.437788 42 52 44
2.433180 1.548387 -9.437788 44 52 44
2.445468 1.548387 -9.437788 44 50 43
2.452107 1.544828 -9.416092 43 49 46
2.460597 1.542464 -9.401683 41 48 46
2.467175 1.538931 -9.380153 40 49 44
2.475610 1.536585 -9.365853 42 51 44
5.679181 3.440273 -20.969284 43 49 46
5.813149 3.487889 -21.259516 41 47 43
5.840830 3.487889 -21.259516 40 46 40
10.537765 6.090634 -37.123867 40 48 40
10.336283 5.946903 -36.247787 39 48 43
10.383481 5.946903 -36.247787 39 47 41
8.294930 4.645161 -28.313364 38 43 40
8.293578 4.623853 -28.183487 36 42 39
8.330276 4.623853 -28.183487 36 42 39
8.328767 4.602740 -28.054794 37 42 38
8.215246 4.520179 -27.551569 38 43 38
8.123620 4.450331 -27.125828 38 44 39
8.305618 4.530337 -27.613483 37 45 39
8.474886 4.602740 -28.054794 39 45 40
8.511415 4.602740 -28.054794 40 45 40
8.547945 4.602740 -28.054794 41 46 41
12.541936 6.503226 -39.638710 36 42 40
12.276730 6.339622 -38.641510 37 44 39
12.327044 6.339622 -38.641510 37 44 39
12.377358 6.339622 -38.641510 37 44 37
4.297240 2.140127 -13.044586 38 45 42
4.314225 2.140127 -13.044586 37 44 41
6.559485 3.241158 -19.755627 37 44 40
7.303730 3.580817 -21.825933 38 45 38
8.122605 3.862069 -23.540230 39 49 43
8.060606 3.818182 -23.272728 39 47 41
8.294003 3.899420 -23.767891 40 46 40
8.324951 3.899420 -23.767891 42 48 41
4.029851 1.880597 -11.462687 43 49 43
2.131816 0.955903 -5.826458 54 64 51
2.139403 0.955903 -5.826458 55 66 49
2.146989 0.955903 -5.826458 58 70 48
2.157645 0.957265 -5.834758 63 74 51
2.173499 0.960915 -5.857007 65 77 58
2.201058 0.969697 -5.910534 63 75 58
2.102293 0.888889 -5.417989 46 58 49
2.109347 0.888889 -5.417989 47 58 48
2.116402 0.888889 -5.417989 62 74 58
2.124393 0.889281 -5.420379 63 73 56
2.132392 0.889673 -5.422771 55 63 48
2.142289 0.890853 -5.429960 49 59 46
2.154119 0.892825 -5.441984 46 53 43
19.469255 6.524272 -39.766991 51 61 49
4.516129 1.478006 -9.008798 41 51 43
4.524542 1.476923 -9.002198 47 53 47
4.532943 1.475842 -8.995607 51 55 50
4.541331 1.474762 -8.989027 52 56 49
11.057591 3.518325 -21.445026 46 51 46
11.027778 3.500000 -21.333334 44 50 45
11.094077 3.512195 -21.407665 45 52 46
11.083333 3.500000 -21.333334 47 57 45
10.902896 3.434412 -20.933561 49 58 44
10.837838 3.405406 -20.756756 51 62 46
14.585034 4.571429 -27.863945 52 66 48
12.818897 3.968504 -24.188976 61 71 56
12.750000 3.937500 -24.000000 60 71 58
12.781250 3.937500 -24.000000 64 76 62
12.812500 3.937500 -24.000000 62 71 56
21.718033 6.609836 -40.288525 64 73 60
21.628664 6.566775 -40.026058 65 74 61
20.930819 6.339622 -38.641510 63 72 57
19.018867 5.433962 -33.121292 54 72 59
18.909090 5.390374 -32.855614 67 84 68
18.410389 5.236363 -31.916883 63 79 60
18.451948 5.236363 -31.916883 68 87 65
18.493507 5.236363 -31.916883 97 114 92
19.752022 5.433962 -33.121292 74 83 61
15.300000 4.200000 -25.600000 74 83 62
15.269710 4.182573 -25.493776 72 84 64
15.053061 4.114286 -25.077551 72 80 62
14.963563 4.080972 -24.874495 69 72 58
15.087576 4.105906 -25.026476 65 67 57
7.169231 1.938462 -11.815385 59 69 56
7.191530 1.940327 -11.826756 57 69 55
7.213873 1.942196 -11.838150 55 65 54
7.257253 1.949710 -11.883945 57 68 54
7.230769 1.938462 -11.815385 60 74 54
7.232245 1.934741 -11.792706 63 79 56
7.247601 1.934741 -11.792706 63 78 56
7.262956 1.934741 -11.792706 64 80 59
7.264368 1.931034 -11.770115 66 80 61
7.224335 1.916350 -11.680609 73 82 66
7.212121 1.909091 -11.636364 69 77 62
7.220435 1.907285 -11.625355 60 67 56
7.221908 1.903683 -11.603399 52 61 52
-2.232731 0.927214 -5.696801 61 77 56
-2.225313 0.927214 -5.696801 68 83 64
-2.224082 0.929800 -5.712692 73 85 63
-3.450072 1.447178 -8.891461 76 89 65
-3.445975 1.450326 -8.910805 66 82 60
-3.426918 1.447178 -8.891461 60 71 54
-2.686397 1.138304 -6.993739 61 70 54
-2.672727 1.136364 -6.981818 64 72 56
-2.663636 1.136364 -6.981818 67 75 59
-2.651532 1.135074 -6.973893 74 80 65
-2.643952 1.135718 -6.977853 74 82 63
-2.896379 1.248439 -7.670412 68 79 58
-3.412844 1.529052 -9.394495 69 81 59
-3.398014 1.527884 -9.387319 67 74 54
-3.409231 1.538462 -9.452308 78 83 59
-4.115564 1.863933 -11.452003 100 101 76
-3.384615 1.538462 -9.452308 102 108 82
-2.794136 1.274697 -7.831740 93 106 80
-2.782166 1.273885 -7.826752 89 103 77
-2.775510 1.275510 -7.836735 85 98 72
-3.357377 1.639344 -10.072131 107 87 88
-3.338789 1.636661 -10.055647 201 181 183
-3.331147 1.639344 -10.072131 200 197 191
-3.787879 1.893939 -11.636364 236 249 242
-3.762040 1.888574 -11.603399 227 246 241
-3.743396 1.886792 -11.592453 224 244 230
-3.728302 1.886792 -11.592453 216 239 220
-2.962500 1.562500 -9.600000 223 241 246
-2.922601 1.547988 -9.510836 221 245 239
-2.962963 1.576044 -9.683215 212 237 224
-2.913619 1.556420 -9.562646 205 232 213
-2.903427 1.557632 -9.570093 179 215 181
-2.895476 1.560062 -9.585023 130 168 117
-2.892019 1.564945 -9.615024 167 191 154
-2.895358 1.573564 -9.667978 209 220 206
-2.896443 1.581028 -9.713834 225 236 232
-2.949956 1.755926 -10.788411 207 239 235
-2.935909 1.755926 -10.788411 100 151 126
-2.987433 1.795332 -11.030520 53 76 67
-2.989170 1.805054 -11.090253 143 121 148
-2.980108 1.808318 -11.110308 232 222 242
-2.968326 1.809955 -11.120362 215 234 238
-2.953846 1.809955 -11.120362 212 233 236
-2.355685 1.457726 -8.956268 215 234 238
-1.714286 1.623377 -9.974026 157 156 148
-1.698541 1.620746 -9.957861 176 159 163
-1.477273 1.420455 -8.727273 233 220 224
-1.465909 1.420455 -8.727273 251 249 249
-1.776236 1.734605 -10.657415 251 253 249
-1.770035 1.742160 -10.703833 252 254 247
-1.756098 1.742160 -10.703833 250 252 244
-1.742160 1.742160 -10.703833 249 251 241
-1.728223 1.742160 -10.703833 251 253 246
-2.189099 2.224694 -13.668521 250 253 247
-1.993871 2.042901 -12.551583 248 253 247
-1.963489 2.028398 -12.462475 247 253 246
-1.943320 2.024292 -12.437247 247 252 245
-1.921292 2.018163 -12.399596 250 253 246
-1.905146 2.018163 -12.399596 253 254 247
-3.964602 4.424779 -27.185841 249 254 246
-1.841270 2.645503 -16.253969 200 240 247
-1.796345 2.610966 -16.041775 201 241 247
-1.775457 2.610966 -16.041775 202 241 248
-4.750000 7.812500 -48.000000 203 241 252
-4.687500 7.812500 -48.000000 203 241 251
-4.625000 7.812500 -48.000000 202 240 251
-4.390977 7.518797 -46.195488 202 240 251
-4.500000 7.812500 -48.000000 202 239 252
-4.437500 7.812500 -48.000000 202 238 253
-4.375000 7.812500 -48.000000 202 238 252
-4.312500 7.812500 -48.000000 203 239 253
-1.047898 1.955034 -12.011730 202 240 253
-1.032258 1.955034 -12.011730 202 240 252
-1.203704 2.314815 -14.222222 202 240 251
-1.185185 2.314815 -14.222222 206 241 249
-1.168019 2.317497 -14.238702 207 241 249
-1.728223 3.484321 -21.407665 207 241 249
-1.703316 3.490402 -21.445026 207 241 249
-1.093394 2.277904 -13.995444 205 239 250
-0.976215 2.068252 -12.707342 205 239 249
-0.955716 2.059732 -12.654995 207 241 249
-1.422777 3.120125 -19.170046 210 243 248
-1.400000 3.125000 -19.200001 215 244 250
-0.059424 0.928505 -5.704735 241 249 241
-0.051924 0.927214 -5.696801 241 250 242
-0.044465 0.926355 -5.691524 238 249 241
-0.037054 0.926355 -5.691524 237 248 240
-0.029795 0.931099 -5.720670 231 245 239
1.000000 5.434783 -33.391304 223 238 241
0.862921 4.494382 -27.613483 226 238 240
0.888889 4.444445 -27.306667 233 244 245
0.527250 2.534854 -15.574144 239 248 248
0.529412 2.450980 -15.058824 241 249 247
0.549020 2.450980 -15.058824 242 251 245
0.647520 2.610966 -16.041775 242 250 244
0.665800 2.600780 -15.979194 244 251 245
0.686606 2.600780 -15.979194 245 251 246
0.791849 2.911208 -17.886463 245 251 245
0.813953 2.906977 -17.860466 245 250 245
0.835994 2.902758 -17.834543 244 249 246
0.851799 2.877698 -17.680576 242 248 244
0.791667 2.604167 -16.000000 240 246 241
0.812500 2.604167 -16.000000 239 245 240
0.869785 2.528445 -15.534766 236 242 241
0.877805 2.493766 -15.321695 234 241 239
5.125000 7.812500 -48.000000 51 57 52
5.187500 7.812500 -48.000000 49 56 51
5.250000 7.812500 -48.000000 49 55 49
5.132075 7.547170 -46.369812 46 51 45
5.172932 7.518797 -46.195488 43 48 45
5.437500 7.812500 -48.000000 42 46 45
5.710248 7.067138 -43.420494 48 57 52
5.640678 6.779661 -41.654236 48 53 51
5.581395 6.644518 -40.823921 46 52 50
5.560656 6.557377 -40.288525 44 50 48
5.613115 6.557377 -40.288525 44 50 48
5.665574 6.557377 -40.288525 44 49 49
3.579909 3.044140 -18.703196 47 54 46
3.555556 3.003003 -18.450451 43 50 43
7.765472 6.514658 -40.026058 43 50 43
7.208791 5.494505 -33.758244 40 49 44
7.252747 5.494505 -33.758244 40 49 45
7.466667 5.333333 -32.768002 48 58 48
4.184249 2.971768 -18.258543 51 63 50
4.152493 2.932551 -18.017595 53 65 53
4.163743 2.923977 -17.964912 53 65 54
4.181022 2.919708 -17.938686 53 64 54
4.192140 2.911208 -17.886463 51 63 52
4.209302 2.906977 -17.860466 47 59 48
4.232558 2.906977 -17.860466 43 54 46
4.293255 2.932551 -18.017595 42 49 43
4.340176 2.932551 -18.017595 44 50 47
2.961194 1.990050 -12.226866 44 50 47
2.953603 1.974334 -12.130306 43 49 46
2.940372 1.955034 -12.011730 41 45 44
2.944499 1.947420 -11.964947 41 47 43
2.960078 1.947420 -11.964947 41 50 45
2.975657 1.947420 -11.964947 41 51 47
3.254237 2.118644 -13.016949 45 53 48
3.010669 1.939864 -11.918526 49 56 49
3.017408 1.934236 -11.883945 45 52 45
2.399388 1.530222 -9.401683 42 51 44
2.865454 1.818182 -11.170909 42 52 45
2.880000 1.818182 -11.170909 44 52 44
5.679181 3.412969 -20.969284 47 53 47
5.706485 3.412969 -20.969284 46 52 47
5.733788 3.412969 -20.969284 43 49 45
5.751277 3.407155 -20.933561 39 45 42
5.868512 3.460208 -21.259516 38 46 42
4.741543 2.706360 -16.627876 45 53 45
4.782609 2.717391 -16.695652 42 49 42
8.411215 4.672897 -28.710279 37 43 40
8.448598 4.672897 -28.710279 35 41 39
8.485981 4.672897 -28.710279 35 41 39
8.483721 4.651163 -28.576744 37 41 39
8.403669 4.587156 -28.183487 38 42 40
8.269663 4.494382 -27.613483 38 44 41
8.615385 4.662004 -28.643356 37 45 42
8.552996 4.608295 -28.313364 38 45 41
8.589862 4.608295 -28.313364 38 44 40
8.547945 4.566210 -28.054794 40 46 42
8.506787 4.524887 -27.800905 41 47 43
6.210526 3.289474 -20.210526 39 47 43
7.968750 3.906250 -24.000000 38 44 40
8.000000 3.906250 -24.000000 37 44 38
8.031250 3.906250 -24.000000 38 45 38
7.969697 3.787879 -23.272728 39 46 43
8.000000 3.787879 -23.272728 39 47 43
8.030303 3.787879 -23.272728 38 47 42
8.137668 3.824092 -23.495220 39 46 42
8.263056 3.868472 -23.767891 40 46 42
8.310078 3.875969 -23.813953 41 47 41
2.140418 0.948767 -5.829222 54 65 49
2.150048 0.949668 -5.834758 57 68 49
2.163810 0.952381 -5.851429 62 74 52
2.173499 0.953289 -5.857007 64 75 55
2.200000 0.961538 -5.907692 63 75 57
2.208754 0.962001 -5.910534 62 75 52
2.113475 0.886525 -5.446808 49 61 48
2.116814 0.884956 -5.437168 58 71 55
2.123894 0.884956 -5.437168 67 80 59
2.133806 0.886132 -5.444395 59 68 50
2.141844 0.886525 -5.446808 48 56 44
2.148936 0.886525 -5.446808 43 52 45
14.423077 4.807693 -29.538462 52 59 51
14.461538 4.807693 -29.538462 51 61 50
12.401607 4.016064 -24.674698 46 54 47
4.539589 1.466276 -9.008798 49 55 48
4.172043 1.344086 -8.258064 49 54 48
4.182796 1.344086 -8.258064 45 55 48
12.283464 3.937008 -24.188976 42 54 48
14.812065 4.640371 -28.510441 46 54 47
11.130435 3.478261 -21.370436 47 54 47
14.715596 4.587156 -28.183487 47 57 48
14.752294 4.587156 -28.183487 48 61 48
14.788991 4.587156 -28.183487 51 63 49
14.657597 4.535147 -27.863945 53 63 52
12.875740 3.944773 -24.236687 58 69 55
12.907298 3.944773 -24.236687 62 73 59
22.312925 6.802721 -41.795918 63 72 56
22.367348 6.802721 -41.795918 60 69 52
22.046824 6.688963 -41.096989 60 68 54
21.718033 6.557377 -40.288525 64 72 59
20.946373 6.309148 -38.763409 65 74 60
20.930819 6.289308 -38.641510 64 76 59
22.092714 6.622517 -40.688744 74 86 66
19.438017 5.509642 -33.851238 53 71 60
19.482094 5.509642 -33.851238 69 87 73
18.951872 5.347594 -32.855614 83 97 80
18.451948 5.194805 -31.916883 71 80 61
15.266666 4.166667 -25.600000 74 83 65
15.268191 4.158004 -25.546778 73 81 64
15.269710 4.149378 -25.493776 73 80 64
15.053061 4.081633 -25.077551 71 75 61
14.903226 4.032258 -24.774193 66 69 57
14.935484 4.032258 -24.774193 59 68 56
7.226305 1.934236 -11.883945 67 76 59
7.241779 1.934236 -11.883945 66 75 58
7.247601 1.919386 -11.792706 67 80 59
7.262956 1.919386 -11.792706 67 81 60
7.278311 1.919386 -11.792706 73 87 67
7.258835 1.910220 -11.736390 79 88 71
7.225806 1.897533 -11.658444 68 72 58
7.227273 1.893939 -11.636364 60 66 53
14.512334 3.795066 -23.316889 54 64 52
-2.241187 0.920223 -5.699443 88 102 82
-2.231696 0.919370 -5.694161 70 84 64
-2.224282 0.919370 -5.694161 84 96 76
-2.228225 0.924080 -5.723335 77 91 66
-2.223881 0.925373 -5.731343 72 88 59
-2.695405 1.125355 -6.969938 72 88 61
-2.687855 1.125993 -6.973893 64 76 56
-2.681818 1.127273 -6.981818 62 73 54
-2.672727 1.127273 -6.981818 64 75 57
-2.663636 1.127273 -6.981818 68 78 60
-2.653038 1.126633 -6.977853 77 84 68
-2.646959 1.127914 -6.985787 82 88 71
-2.896379 1.238452 -7.670412 76 85 66
-2.890000 1.240000 -7.680000 70 78 62
-4.115564 1.849021 -11.452003 94 97 73
-2.797203 1.261284 -7.811824 102 110 84
-2.787031 1.261284 -7.811824 95 108 82
-2.747170 1.247799 -7.728302 89 100 76
-3.942029 1.797101 -11.130435 81 92 68
-3.371193 1.632922 -10.113581 132 118 111
-3.358025 1.632922 -10.113581 187 181 169
-3.772727 1.878788 -11.636364 223 246 228
-3.757576 1.878788 -11.636364 150 192 147
-3.731822 1.873466 -11.603399 132 158 121
-2.947368 1.535604 -9.510836 226 244 238
-2.925926 1.530864 -9.481482 205 233 211
-2.906852 1.527329 -9.459584 171 203 168
-2.901235 1.530864 -9.481482 143 171 138
-2.913619 1.543969 -9.562646 154 182 155
-2.907956 1.547582 -9.585023 104 142 111
-2.902267 1.551212 -9.607506 73 101 73
-2.894284 1.553641 -9.622553 142 151 141
-2.893082 1.559748 -9.660378 187 186 192
-2.891870 1.565904 -9.698501 216 225 234
-2.886076 1.569620 -9.721519 219 238 243
-2.949956 1.741879 -10.788411 207 239 235
-2.935909 1.741879 -10.788411 96 147 122
-2.992806 1.784173 -11.050360 56 78 70
-2.994575 1.793852 -11.110308 148 127 153
-2.980108 1.793852 -11.110308 231 224 242
-2.968326 1.795475 -11.120362 214 232 236
-2.953846 1.795475 -11.120362 213 232 236
-2.367347 1.446064 -8.956268 213 232 236
-2.353969 1.445011 -8.949745 213 232 236
-2.344023 1.446064 -8.956268 213 232 236
-1.711507 1.607780 -9.957861 188 180 191
-1.698541 1.607780 -9.957861 231 220 227
-1.685575 1.607780 -9.957861 249 244 243
-1.757469 1.743410 -10.797891 244 247 235
-1.740351 1.740351 -10.778948 247 250 238
-1.942744 1.958539 -12.130306 248 251 240
-1.987780 2.020367 -12.513238 247 252 241
-1.963489 2.012170 -12.462475 247 253 242
-1.943320 2.008097 -12.437247 250 253 242
-1.921292 2.002018 -12.399596 252 254 244
-1.905146 2.002018 -12.399596 252 254 245
-4.705883 6.142415 -38.043343 200 238 250
-4.489552 5.922388 -36.680595 198 236 247
-5.375000 7.750000 -48.000000 191 232 243
-5.312500 7.750000 -48.000000 191 232 244
-5.250000 7.750000 -48.000000 194 233 244
-5.187500 7.750000 -48.000000 195 233 245
-5.125000 7.750000 -48.000000 197 235 246
-4.817844 7.375465 -45.680298 197 235 247
-4.723247 7.321033 -45.343174 198 236 245
-4.937500 7.750000 -48.000000 198 236 246
-4.875000 7.750000 -48.000000 199 237 247
-4.812500 7.750000 -48.000000 200 238 248
-4.750000 7.750000 -48.000000 201 239 249
-4.687500 7.750000 -48.000000 201 239 249
-4.625000 7.750000 -48.000000 202 240 250
-4.562500 7.750000 -48.000000 203 241 251
-4.500000 7.750000 -48.000000 206 242 251
-4.437500 7.750000 -48.000000 206 242 249
-4.375000 7.750000 -48.000000 205 241 249
-1.734266 3.468531 -21.482517 206 241 253
-1.700348 3.456446 -21.407665 206 241 253
-0.997921 2.062370 -12.773389 205 240 251
-0.972194 2.043254 -12.654995 205 240 250
-0.955716 2.043254 -12.654995 205 241 249
-0.939238 2.043254 -12.654995 204 241 249
-0.059369 0.920223 -5.699443 242 249 242
-0.051900 0.919370 -5.694161 241 250 243
-0.044486 0.919370 -5.694161 239 250 242
-0.037071 0.919370 -5.694161 239 250 242
-0.029795 0.923650 -5.720670 235 247 239
-0.022409 0.926237 -5.736695 230 243 236
0.830700 4.478555 -27.738150 229 246 248
0.853333 4.408889 -27.306667 229 245 245
0.886918 4.399113 -27.246120 232 247 244
0.918322 4.379691 -27.125828 234 247 243
0.538653 2.473815 -15.321695 236 248 242
0.758410 3.033639 -18.788990 238 249 241
0.665800 2.579974 -15.979194 240 248 241
0.771930 2.900585 -17.964912 240 248 242
0.795322 2.900585 -17.964912 241 249 242
0.818713 2.900585 -17.964912 241 249 242
0.838428 2.887918 -17.886463 239 249 242
0.853026 2.858790 -17.706053 238 248 242
0.791667 2.583333 -16.000000 237 247 242
0.812500 2.583333 -16.000000 237 247 243
0.831169 2.576623 -15.958442 238 248 240
0.843188 2.550128 -15.794345 237 247 239
0.849558 2.508217 -15.534766 236 246 240
0.869785 2.508217 -15.534766 234 245 240
5.250000 7.750000 -48.000000 49 56 49
5.312500 7.750000 -48.000000 44 50 45
5.192453 7.486793 -46.369812 42 48 44
5.625000 7.750000 -48.000000 46 57 53
5.687500 7.750000 -48.000000 50 61 57
5.544554 6.547855 -40.554455 47 53 51
5.524430 6.462541 -40.026058 45 51 49
5.613115 6.504918 -40.288525 43 49 47
3.579909 3.019787 -18.703196 43 50 42
3.555556 2.978979 -18.450451 41 48 40
3.579580 2.978979 -18.450451 41 48 41
6.791667 5.166667 -32.000000 43 53 44
6.833333 5.166667 -32.000000 39 49 42
7.213115 5.420765 -33.573769 40 49 43
7.509333 5.290667 -32.768002 58 69 53
4.176991 2.926254 -18.123894 56 69 53
4.175953 2.909091 -18.017595 48 60 48
4.187134 2.900585 -17.964912 50 62 51
4.204380 2.896350 -17.938686 52 63 52
4.215429 2.887918 -17.886463 46 55 46
2.927396 1.920620 -11.895451 39 45 44
3.220339 2.101695 -13.016949 39 47 45
3.237288 2.101695 -13.016949 40 50 47
2.850909 1.803636 -11.170909 43 52 44
3.269710 2.058091 -12.746888 43 53 45
3.296566 2.064516 -12.786680 44 52 44
5.750000 3.444444 -21.333334 52 58 51
5.767764 3.438475 -21.296360 50 58 49
5.706485 3.385665 -20.969284 49 58 50
5.733788 3.385665 -20.969284 45 54 47
5.741497 3.374150 -20.897959 41 49 45
4.741543 2.684709 -16.627876 50 56 47
10.897833 6.142415 -38.043343 41 47 40
10.572271 5.852508 -36.247787 38 44 39
10.526316 5.801169 -35.929825 37 43 38
8.650718 4.746411 -29.397129 35 42 37
8.668258 4.735084 -29.326969 35 41 37
8.665083 4.712589 -29.187649 37 41 40
8.703088 4.712589 -29.187649 37 41 41
8.626728 4.571429 -28.313364 39 45 39
6.184210 3.263158 -20.210526 40 47 41
6.210526 3.263158 -20.210526 38 47 41
6.236842 3.263158 -20.210526 36 45 40
11.266273 5.869823 -36.355030 36 44 39
8.651584 4.488688 -27.800905 37 43 38
7.111111 3.674074 -22.755556 36 43 38
5.333333 2.744122 -16.995852 38 44 39
7.937500 3.875000 -24.000000 38 44 40
7.968750 3.875000 -24.000000 39 45 41
8.000000 3.875000 -24.000000 38 44 38
8.046967 3.882583 -24.046967 38 45 38
8.077071 3.822736 -23.676300 41 47 43
7.969697 3.757576 -23.272728 41 47 45
8.000000 3.757576 -23.272728 40 47 43
8.045541 3.764706 -23.316889 39 46 42
8.137668 3.793499 -23.495220 39 47 42
8.263056 3.837524 -23.767891 39 47 42
8.310078 3.844961 -23.813953 41 50 43
2.462882 1.082969 -6.707424 52 63 51
2.155164 0.944312 -5.848643 53 64 50
2.163810 0.944762 -5.851429 57 69 50
2.173499 0.945663 -5.857007 59 70 52
2.200000 0.953846 -5.907692 58 69 53
2.207692 0.953846 -5.907692 62 74 54
2.215385 0.953846 -5.907692 69 83 60
2.226219 0.938949 -5.815428 53 60 49
2.120567 0.879433 -5.446808 59 70 54
2.127660 0.879433 -5.446808 58 68 52
2.135699 0.879823 -5.449224 50 59 47
2.145648 0.880995 -5.456483 45 54 46
14.423077 4.769231 -29.538462 50 57 49
14.461538 4.769231 -29.538462 51 60 52
14.361905 4.723810 -29.257143 50 57 51
14.163935 4.646370 -28.777517 49 54 50
14.102325 4.613954 -28.576744 49 53 51
12.369478 3.983936 -24.674698 47 53 45
12.401607 3.983936 -24.674698 48 54 47
6.686825 2.142549 -13.269979 48 54 47
6.682454 2.135630 -13.227126 45 51 46
6.663812 2.124197 -13.156317 43 52 47
6.680942 2.124197 -13.156317 43 53 49
8.371846 2.634794 -16.318726 45 51 45
14.749425 4.560920 -28.248276 46 52 47
14.752294 4.550459 -28.183487 45 53 45
14.621315 4.498866 -27.863945 46 56 47
14.591422 4.478555 -27.738150 48 59 51
14.432072 4.418708 -27.367483 50 60 52
14.060606 4.294372 -26.597403 51 63 50
22.301371 6.794520 -42.082191 53 65 48
22.279863 6.771331 -41.938568 57 67 52
22.258503 6.748299 -41.795918 60 69 55
21.939800 6.635451 -41.096989 61 71 55
21.920000 6.613333 -40.959999 59 69 53
21.684210 6.526316 -40.421051 57 66 52
21.736841 6.526316 -40.421051 58 66 53
20.895899 6.258675 -38.763409 61 69 56
20.946373 6.258675 -38.763409 63 71 58
20.996845 6.258675 -38.763409 65 78 59
21.875410 6.504918 -40.288525 80 94 69
15.300000 4.133333 -25.600000 68 76 61
15.206612 4.099174 -25.388430 71 75 64
14.901011 4.008081 -24.824242 66 69 58
14.903226 4.000000 -24.774193 58 64 52
14.935484 4.000000 -24.774193 55 69 54
14.142323 3.715356 -23.011236 65 74 56
14.172285 3.715356 -23.011236 62 74 55
14.309434 3.743396 -23.184906 70 84 64
14.448669 3.771863 -23.361217 78 89 69
14.479088 3.771863 -23.361217 69 74 57
14.481974 3.764706 -23.316889 58 63 49
14.512334 3.764706 -23.316889 51 61 47
-2.248488 0.915775 -5.718009 90 110 87
-2.231696 0.911956 -5.694161 76 93 71
-2.224282 0.911956 -5.694161 87 98 77
-2.224082 0.914923 -5.712692 81 95 70
-2.219739 0.916201 -5.720670 62 80 53
-2.213321 0.916628 -5.723335 64 78 57
-2.683286 1.115014 -6.962039 64 75 59
-2.677255 1.116279 -6.969938 63 74 60
-2.669693 1.116913 -6.973893 64 75 61
-2.663636 1.118182 -6.981818 65 76 62
-2.656054 1.118818 -6.985787 68 78 62
-2.908182 1.229232 -7.675203 72 81 61
-2.898189 1.229232 -7.675203 76 83 63
-2.890000 1.230000 -7.680000 98 100 85
-2.766917 1.233083 -7.699248 92 97 72
-2.756892 1.233083 -7.699248 95 105 78
-2.757233 1.237736 -7.728302 87 100 74
-2.745443 1.236958 -7.723444 80 90 66
-2.735387 1.236958 -7.723444 79 89 66
-3.927536 1.782609 -11.130435 77 89 66
-3.080460 1.413793 -8.827586 149 141 136
-3.071172 1.414809 -8.833933 145 150 145
-3.358025 1.619753 -10.113581 84 103 72
-3.762040 1.858357 -11.603399 186 213 177
-3.746931 1.858357 -11.603399 118 153 116
-3.731822 1.858357 -11.603399 131 144 117
-3.580111 1.812155 -11.314918 220 210 206
-2.836630 1.441758 -9.002198 233 236 225
-2.831131 1.444934 -9.022026 223 234 212
-2.823529 1.447059 -9.035295 230 240 212
-2.811765 1.447059 -9.035295 221 234 208
-2.924731 1.511521 -9.437788 195 223 190
-2.912442 1.511521 -9.437788 108 155 104
-2.900154 1.511521 -9.437788 55 93 44
-2.890085 1.512683 -9.445043 71 92 58
-2.911353 1.530327 -9.555210 143 160 135
-2.909091 1.542320 -9.630094 94 118 95
-2.903378 1.545954 -9.652789 130 132 121
-2.904499 1.553275 -9.698501 197 189 189
-2.898734 1.556962 -9.721519 233 236 240
-2.949956 1.727831 -10.788411 206 238 234
-3.000902 1.774572 -11.080253 59 79 72
-2.997285 1.780995 -11.120362 148 127 153
-2.982805 1.780995 -11.120362 230 225 243
-2.971014 1.782609 -11.130435 216 234 238
-2.956522 1.782609 -11.130435 214 233 237
-2.942029 1.782609 -11.130435 214 233 237
-2.359124 1.436496 -8.969343 214 233 237
-1.711507 1.594814 -9.957861 240 231 232
-1.698541 1.594814 -9.957861 245 243 239
-1.987780 2.004073 -12.513238 239 244 235
-1.963489 1.995943 -12.462475 238 244 235
-1.947262 1.995943 -12.462475 242 244 237
-1.927125 1.991903 -12.437247 245 246 240
-1.905146 1.985873 -12.399596 246 249 240
-5.752809 7.370787 -46.022472 203 241 250
-4.705883 6.092879 -38.043343 204 242 251
-4.489552 5.874627 -36.680595 204 243 252
-5.812500 7.687500 -48.000000 205 243 252
-5.750000 7.687500 -48.000000 205 243 252
-5.437500 7.687500 -48.000000 203 240 251
-5.375000 7.687500 -48.000000 203 239 252
-5.312500 7.687500 -48.000000 202 238 252
-5.250000 7.687500 -48.000000 201 239 250
-5.187500 7.687500 -48.000000 200 238 249
-4.877324 7.315985 -45.680298 200 238 250
-4.782288 7.261992 -45.343174 199 237 249
-4.688645 7.208791 -45.010990 197 235 247
-4.664207 7.261992 -45.343174 196 233 246
-4.691730 7.398496 -46.195488 195 233 245
-4.812500 7.687500 -48.000000 195 232 244
-4.571429 7.398496 -46.195488 193 231 243
-4.687500 7.687500 -48.000000 192 230 242
-4.625000 7.687500 -48.000000 192 229 242
-4.562500 7.687500 -48.000000 191 229 241
-4.500000 7.687500 -48.000000 193 231 242
-4.437500 7.687500 -48.000000 193 232 243
-1.111617 2.241458 -13.995444 203 241 248
-1.016949 2.084746 -13.016949 202 242 249
-0.981289 2.045738 -12.773389 203 242 250
-0.955716 2.026777 -12.654995 205 242 251
-0.961012 2.073762 -12.948367 207 241 252
-0.948148 2.082540 -13.003175 207 240 253
-0.051924 0.912378 -5.696801 241 250 242
-0.044693 0.916201 -5.720670 239 250 242
-0.037348 0.918768 -5.736695 239 251 242
-0.029921 0.920056 -5.744740 238 249 243
-0.022440 0.920056 -5.744740 231 243 238
0.830700 4.442438 -27.738150 225 245 245
0.855234 4.383073 -27.367483 226 245 242
0.886918 4.363636 -27.246120 227 245 242
0.922395 4.363636 -27.246120 229 245 243
0.957871 4.363636 -27.246120 231 245 244
0.782875 3.009174 -18.788990 234 247 244
0.790419 2.946108 -18.395210 233 247 243
0.814371 2.946108 -18.395210 232 246 242
0.825959 2.902655 -18.123894 230 245 241
0.849558 2.487990 -15.534766 222 239 239
0.869785 2.487990 -15.534766 220 238 240
5.625000 7.687500 -48.000000 52 61 56
5.687500 7.687500 -48.000000 55 64 59
5.750000 7.687500 -48.000000 53 63 60
4.352000 5.248000 -32.768002 43 50 47
4.269430 5.098445 -31.834196 41 46 43
5.402597 6.389610 -39.896103 42 48 46
5.316456 6.227848 -38.886074 44 50 48
5.367089 6.227848 -38.886074 44 50 48
5.417722 6.227848 -38.886074 42 48 45
3.604262 2.995434 -18.703196 41 48 41
5.800487 4.788321 -29.897810 41 48 41
6.809400 5.138381 -32.083549 44 53 45
6.851175 5.138381 -32.083549 41 50 42
7.887955 5.512605 -34.420170 53 65 51
4.140351 2.877193 -17.964912 55 67 53
4.157664 2.872993 -17.938686 52 65 49
4.181022 2.872993 -17.938686 50 62 47
4.204380 2.872993 -17.938686 48 59 47
10.647058 7.235294 -45.176472 46 52 44
3.276507 2.045738 -12.773389 44 53 46
3.293139 2.045738 -12.773389 44 51 44
5.810219 3.591241 -22.423357 42 47 41
5.777778 3.416667 -21.333334 49 58 50
5.795494 3.410745 -21.296360 45 56 48
5.763293 3.375643 -21.077187 44 55 45
5.751277 3.352641 -20.933561 42 53 43
5.768707 3.346939 -20.897959 43 53 44
11.053628 6.208202 -38.763409 43 47 42
11.104101 6.208202 -38.763409 38 44 38
11.154574 6.208202 -38.763409 38 45 38
10.978461 6.055385 -37.809231 37 44 37
10.666667 5.857143 -36.571430 37 44 37
10.619469 5.805310 -36.247787 37 44 37
10.604106 5.771261 -36.035191 35 42 36
10.145251 5.497207 -34.324024 35 42 36
10.189944 5.497207 -34.324024 37 41 36
8.626728 4.534562 -28.313364 38 45 38
6.287625 3.290970 -20.548494 39 46 39
6.210526 3.236842 -20.210526 37 48 39
11.285714 5.857143 -36.571430 35 46 38
11.333333 5.857143 -36.571430 35 45 37
7.201507 3.706215 -23.141243 36 44 37
7.177570 3.678505 -22.968224 37 44 38
5.333333 2.721992 -16.995852 38 45 38
5.333333 2.710744 -16.925619 38 45 38
6.065671 2.937313 -18.340298 37 43 39
7.968750 3.843750 -24.000000 38 44 40
8.000000 3.843750 -24.000000 39 46 40
6.692307 3.153846 -19.692308 43 49 43
8.077071 3.791908 -23.676300 43 49 45
8.107900 3.791908 -23.676300 42 48 46
8.045714 3.748571 -23.405714 42 48 44
8.091603 3.755725 -23.450382 42 48 44
8.122137 3.755725 -23.450382 41 49 45
8.231214 3.791908 -23.676300 41 51 45
8.342412 3.828794 -23.906614 42 52 45
2.157218 0.937589 -5.854216 48 58 49
2.164840 0.937589 -5.854216 53 63 50
2.174535 0.938484 -5.859800 58 68 56
2.423729 1.042373 -6.508474 55 65 54
2.432203 1.042373 -6.508474 57 68 54
2.215385 0.946154 -5.907692 61 74 57
2.219875 0.944791 -5.899184 61 74 56
2.421488 1.016529 -6.347107 64 73 55
2.226219 0.931377 -5.815428 59 68 53
2.440538 1.017580 -6.353671 58 67 49
2.483333 1.025000 -6.400000 60 70 50
2.121508 0.872727 -5.449224 58 67 54
2.131439 0.873890 -5.456483 54 61 55
2.486319 1.016004 -6.343831 48 56 52
14.323810 4.685714 -29.257143 48 57 48
14.126464 4.608899 -28.777517 48 55 48
14.065116 4.576744 -28.576744 49 54 49
12.401607 3.951807 -24.674698 49 55 46
6.672414 2.120690 -13.241380 50 58 48
6.682454 2.118407 -13.227126 50 57 48
6.699677 2.118407 -13.227126 49 58 49
6.716900 2.118407 -13.227126 49 57 50
6.844639 2.153173 -13.444201 49 52 48
8.329350 2.613546 -16.318726 46 51 46
9.179562 2.872993 -17.938686 44 51 46
8.360743 2.610080 -16.297083 44 51 47
14.886311 4.566125 -28.510441 51 55 46
14.752294 4.513762 -28.183487 45 49 43
14.788991 4.513762 -28.183487 43 51 45
14.591422 4.442438 -27.738150 44 55 45
14.025974 4.259740 -26.597403 46 58 49
8.458333 2.562500 -16.000000 48 60 51
22.301371 6.739726 -42.082191 49 61 48
22.432989 6.762887 -42.226803 53 62 48
22.487972 6.762887 -42.226803 57 64 51
22.389078 6.716723 -41.938568 57 67 51
22.367348 6.693878 -41.795918 56 67 51
21.684210 6.473684 -40.421051 56 65 51
21.736841 6.473684 -40.421051 56 64 51
20.764891 6.169279 -38.520374 58 66 53
20.815046 6.169279 -38.520374 59 67 53
20.930819 6.188679 -38.641510 60 71 50
21.047319 6.208202 -38.763409 74 86 61
22.145695 6.516556 -40.688744 83 95 67
27.812500 7.687500 -48.000000 63 74 59
27.875000 7.687500 -48.000000 63 75 59
14.903226 3.967742 -24.774193 61 70 53
14.935484 3.967742 -24.774193 66 81 60
20.971752 5.559322 -34.711864 86 105 77
14.222222 3.706215 -23.141243 69 75 58
14.279245 3.713207 -23.184906 65 75 58
14.473283 3.755725 -23.450382 68 82 61
14.587332 3.777351 -23.585413 70 82 60
14.618042 3.777351 -23.585413 74 83 63
14.509505 3.741445 -23.361217 68 76 60
-2.231343 0.910448 -5.731343 75 89 65
-2.223881 0.910448 -5.731343 62 76 55
-2.216418 0.910448 -5.731343 65 76 59
-2.209986 0.910873 -5.734018 64 74 57
-2.677255 1.107204 -6.969938 64 73 59
-2.672727 1.109091 -6.981818 65 74 63
-2.665151 1.109721 -6.985787 64 72 61
-2.921826 1.220763 -7.684803 68 74 61
-2.911820 1.220763 -7.684803 72 78 63
-2.901814 1.220763 -7.684803 75 83 67
-2.766542 1.218477 -7.670412 89 97 74
-2.763454 1.221527 -7.689612 86 97 69
-2.758621 1.223825 -7.704075 83 95 68
-2.757233 1.227673 -7.728302 80 90 67
-2.747170 1.227673 -7.728302 75 84 62
-2.737107 1.227673 -7.728302 77 84 64
-3.114943 1.402299 -8.827586 82 90 72
-3.913043 1.768116 -11.130435 74 79 63
-3.094177 1.403307 -8.833933 97 92 82
-3.082674 1.403307 -8.833933 127 122 116
-3.674291 1.785910 -11.242452 164 186 151
-3.659652 1.785910 -11.242452 96 128 81
-3.608696 1.768116 -11.130435 75 102 55
-3.807322 1.880540 -11.838150 85 99 64
-2.801153 1.406340 -8.853026 190 192 169
-2.805797 1.414493 -8.904347 208 217 189
-2.831131 1.433187 -9.022026 165 191 151
-2.823529 1.435294 -9.035295 116 143 91
-2.811765 1.435294 -9.035295 129 135 92
-2.800000 1.435294 -9.035295 183 194 157
-2.894656 1.490076 -9.380153 98 134 88
-2.884645 1.491215 -9.387319 54 80 42
-2.876817 1.493497 -9.401683 69 82 58
-2.921739 1.543083 -9.713834 131 119 124
-2.909091 1.543083 -9.713834 204 187 202
-2.949956 1.713784 -10.788411 208 240 235
-2.985507 1.768116 -11.130435 233 227 243
-2.971014 1.768116 -11.130435 220 235 239
-3.646927 2.181005 -13.729609 220 235 240
-1.760563 1.718310 -10.816901 234 239 227
-1.746479 1.718310 -10.816901 236 240 230
-1.975904 1.959839 -12.337349 242 245 237
-1.979716 1.979716 -12.462475 241 244 236
-1.959514 1.975708 -12.437247 239 241 233
-1.943320 1.975708 -12.437247 239 241 232
-6.062500 7.625000 -48.000000 205 243 250
-5.774436 7.338346 -46.195488 204 243 251
-5.692884 7.310862 -46.022472 204 243 251
-5.875000 7.625000 -48.000000 204 244 252
-5.812500 7.625000 -48.000000 205 244 251
-5.750000 7.625000 -48.000000 204 243 251
-5.687500 7.625000 -48.000000 204 242 252
-5.625000 7.625000 -48.000000 204 242 252
-5.562500 7.625000 -48.000000 204 242 253
-5.500000 7.625000 -48.000000 205 241 252
-5.213483 7.310862 -46.022472 204 240 250
-5.077491 7.202952 -45.343174 204 240 249
-4.909747 7.046931 -44.361012 204 241 250
-4.699301 6.825175 -42.965034 204 240 251
-4.411960 6.485050 -40.823921 203 241 253
-4.877324 7.256505 -45.680298 203 241 254
-4.688645 7.150183 -45.010990 202 241 252
-4.630037 7.150183 -45.010990 203 241 252
-4.588235 7.176471 -45.176472 204 240 252
-4.579926 7.256505 -45.680298 204 239 251
-4.520446 7.256505 -45.680298 203 240 250
-4.477612 7.283582 -45.850746 202 240 250
-4.625000 7.625000 -48.000000 201 239 249
-4.562500 7.625000 -48.000000 200 238 248
-3.657143 6.196826 -39.009525 198 236 248
-3.561129 6.119122 -38.520374 196 234 247
-4.375000 7.625000 -48.000000 195 233 246
-1.083333 2.033333 -12.800000 191 228 241
-1.065557 2.031218 -12.786680 191 228 244
-1.050000 2.033333 -12.800000 190 228 244
-1.034411 2.035454 -12.813347 191 229 242
-1.034995 2.069989 -13.030753 191 229 239
-1.018028 2.069989 -13.030753 190 230 240
-1.000000 2.067797 -13.016949 192 231 241
-0.982011 2.065609 -13.003175 195 232 243
-0.965079 2.065609 -13.003175 197 234 243
-0.030132 0.919021 -5.785311 230 241 235
-0.022588 0.918588 -5.782588 223 234 232
0.851441 4.328160 -27.246120 226 245 245
0.886918 4.328160 -27.246120 225 244 243
0.922395 4.328160 -27.246120 222 243 243
5.625000 7.625000 -48.000000 55 65 61
5.687500 7.625000 -48.000000 60 69 64
4.352000 5.205333 -32.768002 45 51 48
4.269430 5.056995 -31.834196 42 48 45
4.390501 5.150396 -32.422165 42 48 46
4.432718 5.150396 -32.422165 43 49 47
4.451444 5.123360 -32.251968 43 49 45
4.469974 5.096606 -32.083549 42 49 44
4.476684 5.056995 -31.834196 42 49 44
4.415190 4.941772 -31.108860 44 51 45
4.378109 4.855721 -30.567163 58 65 56
4.279518 4.703614 -29.609638 67 75 64
5.260274 5.347945 -33.665752 54 63 56
5.204301 5.247312 -33.032257 52 60 54
5.164021 5.164021 -32.507938 47 53 48
5.800487 4.749392 -29.897810 40 46 41
5.839416 4.749392 -29.897810 41 48 41
6.967742 5.247312 -33.032257 48 56 49
6.809400 5.096606 -32.083549 45 52 47
6.851175 5.096606 -32.083549 43 50 44
6.483412 4.625592 -29.118483 39 44 42
6.444965 4.571429 -28.777517 41 45 41
3.562420 2.512227 -15.814672 41 46 42
7.887955 5.467787 -34.420170 49 61 50
6.378378 4.396396 -27.675676 52 64 51
4.045455 2.772727 -17.454546 53 65 51
9.005714 5.577143 -35.108570 46 50 45
3.286307 2.024896 -12.746888 47 50 46
3.296066 2.020704 -12.720497 45 48 44
3.329865 2.031218 -12.786680 45 46 44
11.157895 6.421052 -40.421051 44 52 44
11.210526 6.421052 -40.421051 45 53 45
11.251613 6.296774 -39.638710 40 47 40
11.088608 6.177215 -38.886074 39 44 38
11.104101 6.157729 -38.763409 37 44 38
11.050000 6.100000 -38.400002 37 46 39
10.962963 6.024692 -37.925926 37 45 38
10.746988 5.879518 -37.012047 35 41 35
10.635015 5.792285 -36.462910 35 41 36
10.619469 5.758112 -36.247787 36 42 37
10.604106 5.724340 -36.035191 35 41 36
10.406877 5.593123 -35.209167 34 41 36
9.254902 4.784314 -30.117647 37 47 40
11.218935 5.775148 -36.355030 36 46 39
9.131894 4.681055 -29.467627 36 44 39
7.201507 3.676083 -23.141243 37 44 38
7.231638 3.676083 -23.141243 37 45 38
7.261770 3.676083 -23.141243 37 46 38
8.273504 4.170940 -26.256411 37 45 38
8.379311 4.206897 -26.482759 38 45 38
10.582677 5.123360 -32.251968 39 46 41
10.222222 4.929293 -31.030304 39 45 39
6.065671 2.913433 -18.340298 38 45 39
6.727273 3.168831 -19.948051 40 46 42
6.666667 3.128205 -19.692308 43 48 43
6.681600 3.123200 -19.660801 44 50 44
6.717949 3.128205 -19.692308 44 50 46
8.107900 3.761079 -23.676300 43 50 45
8.138728 3.761079 -23.676300 43 49 44
8.169557 3.761079 -23.676300 44 49 44
8.122137 3.725191 -23.450382 44 51 46
8.231214 3.761079 -23.676300 44 53 47
2.477024 1.067834 -6.722101 47 58 50
2.408055 1.034446 -6.511924 55 64 53
2.413976 1.033351 -6.505029 60 69 57
2.423729 1.033898 -6.508474 55 66 54
2.388430 1.008264 -6.347107 57 68 53
2.396694 1.008264 -6.347107 60 71 55
2.404959 1.008264 -6.347107 64 75 58
2.413223 1.008264 -6.347107 67 80 56
2.421488 1.008264 -6.347107 65 75 55
2.428498 1.007744 -6.343831 59 67 52
2.440538 1.009307 -6.353671 54 65 47
2.467952 1.017196 -6.403335 64 76 54
2.476290 1.017196 -6.403335 67 78 55
2.484627 1.017196 -6.403335 64 74 55
2.491667 1.016667 -6.400000 63 73 59
2.500000 1.016667 -6.400000 55 62 55
2.504420 1.015081 -6.390016 47 54 49
2.506224 1.012448 -6.373444 43 52 46
2.510616 1.010875 -6.363542 43 50 44
14.088993 4.571429 -28.777517 46 54 47
12.235294 3.959432 -24.924950 45 52 45
12.193548 3.935484 -24.774193 48 53 47
10.124590 3.200000 -20.144262 46 53 45
6.665231 2.101184 -13.227126 48 57 48
6.682454 2.101184 -13.227126 50 59 49
6.706897 2.103448 -13.241380 51 60 49
6.724138 2.103448 -13.241380 51 58 48
9.156204 2.849635 -17.938686 46 51 45
9.179562 2.849635 -17.938686 45 50 47
9.162790 2.837209 -17.860466 45 51 48
14.715596 4.477064 -28.183487 59 67 55
14.519187 4.406321 -27.738150 51 53 48
14.788991 4.477064 -28.183487 51 55 49
14.591422 4.406321 -27.738150 49 57 48
8.459530 2.548303 -16.041775 49 58 48
8.458333 2.541667 -16.000000 50 59 49
8.479167 2.541667 -16.000000 51 60 48
8.488947 2.538362 -15.979194 53 61 48
22.334471 6.662116 -41.938568 54 62 50
21.866667 6.506667 -40.959999 55 64 51
21.920000 6.506667 -40.959999 56 65 52
17.301838 5.123360 -32.251968 57 64 53
17.343832 5.123360 -32.251968 55 62 51
17.295038 5.096606 -32.083549 55 63 50
16.155718 4.749392 -29.897810 54 63 49
16.194647 4.749392 -29.897810 54 64 49
20.850000 6.100000 -38.400002 61 72 54
21.031446 6.138365 -38.641510 65 76 58
15.590697 4.539535 -28.576744 61 73 53
17.454546 5.070130 -31.916883 59 73 48
17.496103 5.070130 -31.916883 65 79 54
17.537663 5.070130 -31.916883 75 86 64
17.005026 4.904522 -30.874372 80 88 65
10.377746 2.857980 -17.991215 73 82 62
25.739130 7.072464 -44.521740 67 76 58
26.080585 7.150183 -45.010990 61 70 56
14.464491 3.746641 -23.585413 88 96 71
14.195489 3.669173 -23.097744 80 86 66
14.172285 3.655431 -23.011236 74 82 63
14.418251 3.711027 -23.361217 72 80 61
14.843750 3.812500 -24.000000 68 77 56
-2.689151 1.088252 -6.907251 68 81 62
-2.223881 0.902985 -5.731343 65 77 57
-2.216418 0.902985 -5.731343 67 77 58
-2.657688 1.086420 -6.895623 65 74 56
-2.660654 1.091319 -6.926719 69 77 63
-2.665156 1.096884 -6.962039 77 84 74
-2.663636 1.100000 -6.981818 69 76 63
-2.778683 1.213793 -7.704075 96 109 91
-2.768652 1.213793 -7.704075 81 97 71
-2.777778 1.222222 -7.757576 80 94 69
-2.767677 1.222222 -7.757576 83 93 72
-2.757576 1.222222 -7.757576 81 87 65
-2.745741 1.221451 -7.752681 76 81 63
-3.114943 1.390805 -8.827586 74 81 66
-3.103448 1.390805 -8.827586 63 70 55
-3.091954 1.390805 -8.827586 79 81 69
-3.084892 1.392806 -8.840288 112 114 103
-3.691176 1.779412 -11.294118 86 105 70
-3.659652 1.771272 -11.242452 72 91 49
-3.608696 1.753623 -11.130435 87 103 60
-3.561939 1.737882 -11.030520 89 107 67
-3.807322 1.865125 -11.838150 106 111 82
-2.814070 1.389806 -8.821249 117 126 124
-2.802584 1.389806 -8.821249 89 108 91
-2.791098 1.389806 -8.821249 95 107 75
