ply
format ascii 1.0
element vertex 43
property float x
property float y
property float z
property uchar red
property uchar green
property uchar blue
end_header
-0.5350304072544076 -0.9914039224658259 3.696101630223693 255 255 255
0.08781294442235583 -0.4659011931935261 6.56455255056828 255 255 255
0.18544009579756945 -0.5332564213675525 6.862189575646884 255 255 255
0.14568330569562374 -0.5195172691934606 6.66445685450874 255 255 255
-5.556773723939914 -1.0653136778899917 -29.683703443177645 255 255 255
0.3999815484509242 -0.5929878588812569 7.53476826574047 255 255 255
-0.0004056720607459539 -0.39370906149267176 6.282446425521582 255 255 255
10.790053480699756 -3.4147866079569593 28.366179529550944 255 255 255
5.85815637273715 -2.275923323519698 19.697273243894962 255 255 255
-0.4169009256458975 -0.19140891098571547 3.042909247180849 255 255 255
8.998152487171838 0.46678628589447824 56.11184415473857 255 255 255
0.10145623907219783 -0.4957510309127714 6.321460236743331 255 255 255
0.38073911022347184 -0.3109204186944138 7.863399089476229 255 255 255
-0.4001090662693527 -0.47153360977557257 4.417562522345379 255 255 255
-0.3859189178230591 -0.12196465338843222 2.1291609703134515 255 255 255
-0.034829019138050865 -0.41087869920001363 6.111447929663335 255 255 255
-0.08641637999195335 -0.49154526941136023 5.562204843247799 255 255 255
-0.15344335177484417 -0.3570349595207764 6.491952453809473 255 255 255
-0.06533144704045599 -0.3305447973646701 6.002962520157868 255 255 255
-0.22165057917681594 -0.45951380278559767 4.411309765393012 255 255 255
-0.0017053841539422462 -0.39622778729038854 6.34578613197095 255 255 255
-0.039176914475610926 -0.46146142085410835 5.844452490436259 255 255 255
0.14734497137217975 -0.4770910072144803 6.7327730943302315 255 255 255
1.7458131180481935 -1.1003270901732896 -5.617121046701097 255 255 255
0.07622991340711383 -0.4123448032907923 6.587694747787238 255 255 255
-2.3637869893768415 -0.28161055908861965 -9.392802670246448 255 255 255
1.0164783911645898 -0.8242851318655106 9.447764813489018 255 255 255
3.641692567159859 -5.1188129198741805 19.65774942247198 255 255 255
3.8728004211024527 -5.28431272354656 20.15871919521706 255 255 255
-0.4091422358474725 -0.28406558789518255 3.97463999383178 255 255 255
-0.206898686905226 -0.41409473039972156 4.774092286774238 255 255 255
0.20513003743764305 0.11159134563136414 -0.7527683188080742 255 255 255
9.857582925391194 -8.925024692002504 39.3968812340142 255 255 255
0.2792753985061225 0.1194895356154145 -0.8348870636606082 255 255 255
-0.03717422239928038 -0.35934702215559045 6.297947818558381 255 255 255
12.718269071175198 -9.596297983129373 47.51139846685239 255 255 255
-1.5763014260010935 -0.27159366959240916 -5.493222300240291 255 255 255
18.865137319603985 -11.557778695681641 62.14849119096348 255 255 255
-0.2010522925274596 -0.4467704904683398 4.820600459842685 255 255 255
-0.04500467841332506 0.024668225312977653 -0.09262920782736674 255 255 255
-0.19103972637768643 -0.43257039612378084 4.7723038416111745 255 255 255
1.5446307697405663 -3.6604329989732016 12.484572762568853 255 255 255
0.13174498965369946 -0.4380706805474206 6.858806723504507 255 255 255
