ply
format ascii 1.0
element vertex 683
property float x
property float y
property float z
property uchar red
property uchar green
property uchar blue
end_header
-0.7543299906461561 -0.35953659068116517 2.6169111142431505 255 255 255
-1.200203860467033 0.14300056592823684 2.6675796851906846 255 255 255
0.7443681111264482 0.03785511062682254 2.3296867067030536 255 255 255
0.5824630230750082 -0.6107019668196685 2.3958335900920686 255 255 255
-1.0791052205924834 -0.6258531644616011 2.6887312292565713 255 255 255
0.6714261681822852 -0.554393471842416 2.3755714917647106 255 255 255
0.7620748828492989 -0.08930845141063162 2.334350479276068 255 255 255
0.08356883718418016 0.2653705875252901 2.182968064357346 255 255 255
0.48200148181775143 -0.4389296115637502 2.40598106518255 255 255 255
0.849437198929826 0.05145277017026605 2.3101330865606093 255 255 255
-1.1933542867282547 0.09385587791353228 2.667400439185683 255 255 255
0.6616467174531298 -0.030559381982300262 2.3477900720990936 255 255 255
0.7407244176232568 -0.6999224728107514 2.3703488249577513 255 255 255
0.6133200455359658 -0.1010699393360046 2.360120008002537 255 255 255
0.9712508214897676 -0.3401896215072587 2.307331574101027 255 255 255
-0.9729121035272709 -0.6170799790475223 2.6729931927125303 255 255 255
-1.228747154805838 0.23836881972792104 2.664634861604186 255 255 255
-0.9902468317052131 -0.0031202042352037303 2.6375512070052247 255 255 255
0.6374666118545155 -0.27668565691122066 2.3694248176720034 255 255 255
-0.9529094027629419 0.1516750795046306 2.6217234709493122 255 255 255
0.07604423766931026 0.19074707252251014 2.222133639135633 255 255 255
0.2929071601893775 0.13658314769468574 2.2820244458797365 255 255 255
0.13260747896084832 0.17816352480309786 2.2151757756247843 255 255 255
-0.4670209999992282 0.2733452925044341 2.279867530201314 255 255 255
0.8694120939813138 -0.02456238682132283 2.3075201572960573 255 255 255
0.9379930042391348 0.1158514119533851 2.2866824144575006 255 255 255
-0.9382675327594799 -0.1857392202988939 2.644324635896563 255 255 255
0.8995951139429458 0.44602747744758336 2.2747688414914404 255 255 255
0.4076937408141165 0.18094117711530103 2.162335938592082 255 255 255
1.0312292607220919 -0.4293589940986101 2.3020124566338653 255 255 255
1.040977168123461 0.4641447431052431 2.2401246000585475 255 255 255
1.0152483473383263 -0.4581611757447183 2.3094872228311907 255 255 255
0.8177641448839914 -0.10499055773315431 2.3263349425891704 255 255 255
-0.9280787032275798 0.12373151779065494 2.617456805944253 255 255 255
-0.8990308069826345 0.06897531380234481 2.622433608359318 255 255 255
0.5228101881753685 -0.6822770945093742 2.412336856105459 255 255 255
0.8373478713385322 -0.36428333654596745 2.3373629212854854 255 255 255
0.6057209827566428 -0.5549528708469906 2.3907921380676003 255 255 255
-1.1036172844429655 -0.4149647002732941 2.669004959949494 255 255 255
0.10643458214767221 0.2037771023111013 2.215251588516959 255 255 255
-1.0654592118609154 -0.35753380736304863 2.6668691970384812 255 255 255
-1.1072346112393243 0.35918435418783223 2.6369207040757994 255 255 255
-0.6961855706945798 -0.2721860145061961 2.605943057734567 255 255 255
0.8271021051621228 -0.5411338352406939 2.346339573268248 255 255 255
0.7514190492230889 -0.08595375160442749 2.3355730330999194 255 255 255
-0.9021621573725236 -0.4299360397398097 2.650375393847832 255 255 255
-1.0773680486590669 -0.5193541659725516 2.684500305605173 255 255 255
-0.6013641939736781 -0.6226874652164034 2.6092913861874423 255 255 255
-0.4091981070117298 0.1962596181969215 2.3066561830189625 255 255 255
0.32200507075600326 0.18487351456122025 2.1768190077159004 255 255 255
-0.9314764038926786 -0.042106149074036155 2.6302539235167894 255 255 255
0.0593140734883577 0.19590958965787908 2.2242816671633174 255 255 255
0.731258086333923 0.05161411160624432 2.3331556761851924 255 255 255
-0.6794342281435891 -0.2934644281275807 2.5977634334100226 255 255 255
0.19848067155558077 -0.05932398889673415 2.3137109126956736 255 255 255
0.6295145137900194 0.028683721997067806 2.348749675848339 255 255 255
-0.8497849076758708 -0.0021846798905616692 2.6144802934723814 255 255 255
0.6346797067977328 -0.5654732611575464 2.384351667211255 255 255 255
-0.3085490536122063 0.37551206344540594 1.7770437792533345 255 255 255
1.0304931606123706 0.2646728001889075 2.262170867723557 255 255 255
-0.7044707776770688 -0.6087659195439641 2.6193482364416667 255 255 255
0.8878338396699672 0.09028648632226609 2.2995611053038836 255 255 255
0.7656762589795721 -0.44591632966775835 2.3565687310594674 255 255 255
-0.3481291507010023 0.18449886518451306 2.2953752825451335 255 255 255
0.41367997376317556 0.07481138863712256 2.2520388905332482 255 255 255
-0.6869926918415901 -0.4208387912932794 2.6122405782974334 255 255 255
1.0243038668286395 -0.10345928028633815 2.287261119436003 255 255 255
0.48921814852639556 -0.4685700742250171 2.4052171230539137 255 255 255
-0.5595178242542507 -0.6303879778936642 2.596822181923914 255 255 255
0.5772054809114339 -0.5595000928727067 2.3939451968708494 255 255 255
-0.02061682740988701 0.19451298386852003 2.237780117804155 255 255 255
1.017623523187725 -0.29835825446566433 2.2975415071734315 255 255 255
-0.9599023224385027 0.1410700942734419 2.625910781236399 255 255 255
-0.1650310715410045 0.2678260101282402 2.225630017181265 255 255 255
1.0141676060756641 0.3632279863240076 2.258055391697092 255 255 255
0.8651086687775738 -0.0896666543602777 2.3179590066110674 255 255 255
0.3117323144192451 0.24575061062955228 2.174341434969024 255 255 255
-0.6604522052968494 -0.5008082769007102 2.6075200827144474 255 255 255
0.8583784260296593 0.27767420702932183 2.3009437859902 255 255 255
0.46995270113433313 -0.6100976386163389 2.4140857131463216 255 255 255
0.40666418332818827 0.18674609370211304 2.1613419802903504 255 255 255
0.17469365246884447 0.23057078614323276 2.203666969278141 255 255 255
-0.5603893216878675 -0.698661762876048 2.600798454469227 255 255 255
-0.7398410592508531 -0.5928577910918548 2.6253182322256787 255 255 255
0.7167652777304567 -0.36247454803827056 2.3613084254379544 255 255 255
1.0036954946589438 -0.17794378833005708 2.293831842478647 255 255 255
0.9554952347508447 0.10277219836039472 2.285596023139059 255 255 255
0.9964235346534742 -0.011447041362594909 2.2817527487812397 255 255 255
-1.042312152438683 -0.31786846955585263 2.66268465944752 255 255 255
0.9242310270690325 0.04624642263313495 2.300039929664338 255 255 255
-0.6692686905765824 -0.311163529321397 2.6011968440429816 255 255 255
-0.06314467617587242 0.20078580792922063 2.244593860222352 255 255 255
-0.7743240316463801 -0.7165964323233233 2.641424377434409 255 255 255
-1.1211782131076273 -0.3446703209744173 2.6760950844809406 255 255 255
0.6131002701347716 -0.6121091693735596 2.3905547170224923 255 255 255
0.5995023909621948 0.0261142072600312 2.355192532182396 255 255 255
0.8095113191402568 -0.3535230477422781 2.340209802746845 255 255 255
0.7633140477750338 -0.6041558400841519 2.365378589442999 255 255 255
0.5148074759913931 -0.6962608637406018 2.417005696672567 255 255 255
0.6239285224273374 -0.1277250892780199 2.35967660249126 255 255 255
0.7199231269271673 -0.8353386558945999 2.3846173676718636 255 255 255
-0.01512255224464987 0.2182212641329768 2.2358025583208883 255 255 255
-0.9178535964788823 -0.11480706757736277 2.6295884257014643 255 255 255
-0.5968199889009643 0.2233180971930772 2.3355261330154846 255 255 255
0.9601453312144246 -0.2832752460392025 2.3088274668158775 255 255 255
0.96204756463961 -0.8292252551410816 2.3434337771008646 255 255 255
0.7383259084538386 -0.824717532994451 2.38131152008896 255 255 255
-0.4441480986584617 0.036648115771127046 2.464946962569703 255 255 255
-1.0981994492730767 -0.4199455730749169 2.6740120681016646 255 255 255
0.7306873114865392 0.4178557962100377 2.3052498363926497 255 255 255
-0.15634342738949517 0.16553055460612903 2.262016055163229 255 255 255
0.7452088170006435 -0.6528724780680443 2.3676352230475195 255 255 255
-0.9393323905068057 -0.43055730307352774 2.6554807882955664 255 255 255
0.5730958378474001 -0.7375751363816755 2.407716283432986 255 255 255
-1.1071107778495242 -0.5869574710685088 2.6942077101890307 255 255 255
-1.0506151579049219 -0.32817545777195956 2.664112593871109 255 255 255
1.0265225108767408 0.34257703492123337 2.2564539548290012 255 255 255
1.0622498496322008 -0.736648065472158 2.317241333598579 255 255 255
-1.231163434029741 0.09133018848840953 2.6770241464051336 255 255 255
0.5539178764718268 -0.36511742913774525 2.3848966360535937 255 255 255
0.8354542540248155 0.10346523172502174 2.3062258780507157 255 255 255
0.9613616492808447 -0.8288379501020341 2.3421341263151607 255 255 255
-1.040374193387653 0.4907751193917138 2.6218186860854997 255 255 255
0.8256464073642037 0.006851186217890008 2.3146004855448217 255 255 255
0.9406659900077787 -0.4472595864864828 2.3237046688293206 255 255 255
0.8638794154324735 0.1265351803724576 2.3064606292201897 255 255 255
0.6030835621533327 -0.29181091553118493 2.3747618866860396 255 255 255
-0.14720187409779273 -0.5337842441271625 2.3784713534925372 255 255 255
0.22599466834651705 0.02120921830523243 2.3452892663988507 255 255 255
0.7086293259191397 0.21173992086542384 2.322861631077205 255 255 255
0.6469828484650236 -0.010461118178740283 2.3491376448013987 255 255 255
-0.3476963140924432 0.0747784537954286 2.3864771986238353 255 255 255
0.6094132856603492 -0.44382202981318186 2.385422882163007 255 255 255
-1.0280736510986044 -0.06428034916802297 2.6473305052020324 255 255 255
0.7077713273559421 0.08373744823063001 2.3320905473833102 255 255 255
0.4707684602867063 -0.5295641106412332 2.4128993864824357 255 255 255
-0.6329503117199758 -0.7728089611836212 2.6199816993441174 255 255 255
0.09373590142428687 0.21401066786429496 2.215257527399011 255 255 255
0.532391207992089 -0.5727396753414079 2.4033015160291784 255 255 255
0.7333674348936782 -0.2368839376011441 2.34977247054833 255 255 255
-1.015889961777926 0.1682680800035101 2.6341089581832957 255 255 255
0.4128668400915405 -0.35269888335454164 2.4100001447536865 255 255 255
0.49039453581647846 -0.8449019336118558 2.4255596498730663 255 255 255
0.8975464880535986 -0.07512601580869935 2.305715330226968 255 255 255
0.8520591859039623 -0.2897669279655305 2.3311058415052726 255 255 255
0.8967283146699281 -0.032402697021276954 2.3048865654480077 255 255 255
1.0180011596742042 0.29052627240735995 2.260807492578633 255 255 255
-0.6241365286358028 -0.5860108085933137 2.607380214654168 255 255 255
-1.0571802034040154 -0.26327534798786134 2.6629492829567694 255 255 255
-1.2025606294471378 0.14487522803571953 2.6697034641448685 255 255 255
-0.6514900952829947 -0.7552295338797983 2.6181616708784117 255 255 255
-1.1940845734112195 -0.4276643988024737 2.7007289483739894 255 255 255
-1.0015645446368673 -0.04381630748257286 2.6414078979859545 255 255 255
-0.9498901559841806 0.16752646352805883 2.6228898172418886 255 255 255
0.6894683042969767 -0.6440299283138853 2.379890681019396 255 255 255
-1.0524497983081615 0.49105736530546024 2.618915569112898 255 255 255
0.7320565225575879 -0.35857153069554926 2.3578122866199163 255 255 255
0.9670738634822533 -0.25271169249993386 2.304005237618269 255 255 255
0.62845566267778 -0.1233935450369157 2.3555154260768054 255 255 255
0.6312934287572347 0.02523084476536326 2.3507440530569275 255 255 255
-0.8972464835723188 -0.5714073163240424 2.6546870723578864 255 255 255
0.6939611689251578 0.4531336507366972 2.3160567534988243 255 255 255
-0.9985661341746846 0.026800811517722994 2.637281930127062 255 255 255
0.7601924744896216 -0.5426154940392577 2.3633453591225133 255 255 255
0.6745258332654498 0.051249738915620256 2.3435833322207573 255 255 255
-0.7464965722131585 -0.5190613821669587 2.6241773783482536 255 255 255
0.7344846050339815 0.33314436832796934 2.315117320618225 255 255 255
-1.047228864639326 0.44086345798583076 2.6264214905471155 255 255 255
0.952758353886427 0.11027455305055842 2.282162665470052 255 255 255
-1.120908465537672 0.17388389732848902 2.647498842463392 255 255 255
0.7557617905441203 -0.025180651799212445 2.3317883474502397 255 255 255
-0.4490787878997822 0.24550383332486217 2.3110916383615234 255 255 255
0.9265794863208685 -0.467517452858972 2.326849603321597 255 255 255
-0.38327528349096734 -0.09529722038364216 2.456660997226042 255 255 255
0.3536735400266069 0.18661192711492527 2.1711177648621267 255 255 255
-0.6781477351938593 -0.4378406972262708 2.6058413034797048 255 255 255
0.9810965411176945 -0.20064205997246426 2.2996674175930334 255 255 255
0.6750325056719244 -0.21643372527882004 2.35803603833077 255 255 255
1.042958597805124 0.31314116917843016 2.254293564634859 255 255 255
0.8380003789573559 0.20709850008427994 2.3070424800091534 255 255 255
0.9195849332833274 0.41757528147286976 2.2712932261510805 255 255 255
-1.183476496493947 0.5373046928967066 2.6003123137656496 255 255 255
0.9186220705005065 -0.5515141768537182 2.3309930795720186 255 255 255
0.9172740893096576 0.31808100852004606 2.279153966056078 255 255 255
0.9162391037343556 0.44889295533776646 2.269027260282585 255 255 255
0.9614617305815412 -0.0969730110260938 2.3037074349648616 255 255 255
0.6781216446633702 -0.3799460360569511 2.3649491184539007 255 255 255
0.8139470305705878 0.574769216724484 2.3050211049390774 255 255 255
0.9143154542973659 0.11165400064532682 2.288948033338078 255 255 255
0.4219798808032709 0.05014583926307001 2.25580546822386 255 255 255
0.720721084655654 -0.07842593386960911 2.3424814599601147 255 255 255
-0.8045963125821514 -0.6278353544165894 2.641215855145271 255 255 255
-0.9301832599194967 -0.18960476227026238 2.6429368160108013 255 255 255
1.0572179490886497 -0.6517603135688879 2.3113887472926242 255 255 255
0.3838786666315459 0.18112435341430044 2.165070403117377 255 255 255
0.8862467061065492 -0.5436398631172772 2.336309438521487 255 255 255
0.8303923395831029 0.4535733112397705 2.2885094643900694 255 255 255
1.020041462821063 0.168307497159233 2.270709468063211 255 255 255
-0.9855353383691831 0.13428467071492511 2.6355145135779 255 255 255
1.0288453889257443 -0.6439718111306272 2.317722656150836 255 255 255
0.869281235878945 -0.539664136131338 2.340957340379299 255 255 255
0.714256002499454 -0.3752232541350311 2.3602501844131094 255 255 255
0.8462255658622531 0.004031696966934719 2.3106653326841653 255 255 255
0.8698290243512775 0.2083223085513325 2.3017813234611846 255 255 255
0.8918803366614295 -0.2092871599625442 2.3135271214526614 255 255 255
-0.9699788470805178 0.22485867155109682 2.6230308115884764 255 255 255
0.03499206168796504 0.19986796374140092 2.228599443651179 255 255 255
0.8019301379201402 0.10586258451097107 2.31206020127327 255 255 255
-0.2526135291924925 0.12306914889504994 2.332360320475984 255 255 255
0.8874446501112799 -0.1183305722305588 2.3123718999722094 255 255 255
0.7434186858743868 -0.02863545483201438 2.3353521054540094 255 255 255
-1.130948513035462 -0.6053597931237964 2.692616351215334 255 255 255
0.13908648188400313 0.18561888631174694 2.2110537420836582 255 255 255
0.30876049322960913 0.22911495541477417 2.1788455891819427 255 255 255
-1.1887779541409014 -0.586045182447607 2.7019921757976295 255 255 255
0.4323099546184183 -0.4796264384062231 2.4157658061301572 255 255 255
0.6749467658974684 -0.238420524582079 2.356679083437948 255 255 255
1.050998225860723 0.11943094878680158 2.266764725726702 255 255 255
0.8202067332986336 -0.4713652524493975 2.346795842560673 255 255 255
-1.004446090102491 -0.7291871031124239 2.681817908910256 255 255 255
-1.1373350215270628 -0.2124007288363249 2.6762499266983237 255 255 255
-1.1268768387212265 -0.1891788946573168 2.6736599277785253 255 255 255
0.8873531606455141 0.13299484434653833 2.300556699756645 255 255 255
-0.9082690323154315 -0.011667146355855593 2.6211198646343834 255 255 255
-0.06457523284826602 0.26835233312927215 2.2081947177983903 255 255 255
-0.9576838880697729 0.2015267945010022 2.621316627551512 255 255 255
-1.1096231097617912 -0.5222627116072326 2.684349532529871 255 255 255
-0.635488948936854 -0.7541205736323984 2.617227300508771 255 255 255
0.8332205263050246 -0.46117856279059405 2.346039489906114 255 255 255
-1.2584513104734023 0.3561347837009995 2.663591076271576 255 255 255
-1.1819739707738035 0.48875973593978816 2.6403780413150604 255 255 255
0.5930681851563085 -0.67921295886516 2.3970994954475993 255 255 255
0.772790840080793 -0.1644032782936713 2.3342818466774715 255 255 255
-0.03415973726759667 0.10400141381882119 2.317681256831333 255 255 255
-0.5876645366719346 -0.6218248901466433 2.6046642303903753 255 255 255
-0.7188277300887383 -0.7142139788259778 2.6333168116125423 255 255 255
-0.8873430900704529 -0.5265360381269703 2.6500413289556497 255 255 255
0.813932613916255 -0.11997644042879237 2.3287031629179404 255 255 255
-0.1010202503167801 0.1883573906312163 2.2498684577042187 255 255 255
-0.8939428144885094 -0.4255346675171799 2.653305705209493 255 255 255
0.5290007898542184 -0.2673504874083061 2.383111138246886 255 255 255
-0.4884971191237581 0.29024252469380407 2.118266656902967 255 255 255
0.7675862721743927 -0.7365129460407047 2.369344391330531 255 255 255
-1.0390479885219688 -0.22776563909875977 2.6608854677647416 255 255 255
0.9153630895232325 -0.019239047344372782 2.2978317949324443 255 255 255
0.5530630544900762 -0.5774487122809588 2.3988998386484823 255 255 255
0.9034626340189482 0.0733007166576379 2.296121359455362 255 255 255
0.3333724828793844 0.1738929009073711 2.176770107308468 255 255 255
-0.23211556242658204 0.07366311896103639 2.353753036240764 255 255 255
-0.3102947525154254 0.26532048517084555 2.2546063059039354 255 255 255
1.0423733674677103 -0.1908489928805823 2.2893776216354897 255 255 255
-0.8508474732019994 -0.43590519522584065 2.6403182238726437 255 255 255
0.4083719109915886 -0.6886777493532968 2.4348355548741365 255 255 255
0.29139702576482207 0.2155259892385744 2.181026250414827 255 255 255
0.8718920936644772 0.2691240920066967 2.2865472428954545 255 255 255
0.6335166492763725 -0.5344476239420173 2.383425546838687 255 255 255
0.6192824180824816 -0.439305396523478 2.3855263567974316 255 255 255
-0.90433342499627 -0.19794745270277023 2.635693220674376 255 255 255
-0.7977545693836895 0.4887234453824224 2.32939534982732 255 255 255
-0.016694430678691533 0.39076721870249803 1.724216518846803 255 255 255
-0.7151981481739331 0.05526117270546399 2.458033941683933 255 255 255
-1.0907278367667301 -0.074788503657939 2.6657876402657 255 255 255
0.5723586245661006 -0.2658404539715238 2.3786652303409164 255 255 255
0.6831519024814117 -0.7614564931018115 2.382484391858188 255 255 255
-0.9224113357905748 -0.5212324368417666 2.6580962193412403 255 255 255
1.0080659363482907 0.5150820638778202 2.20689309837023 255 255 255
0.8005539903124644 -0.3038655162796661 2.3364839922915253 255 255 255
0.7413630155466631 -0.6396191170242549 2.371483839530335 255 255 255
0.9232544453503387 0.09976311517032604 2.292163059834152 255 255 255
0.4136782576002886 0.10629965981420406 2.228750382480074 255 255 255
-0.5526142974382444 -0.6665355649313446 2.5978930946806553 255 255 255
-0.5342612405725679 0.19645571054224903 2.3296390223936916 255 255 255
-1.0845095549647195 0.19470697191983646 2.6404580073591712 255 255 255
-0.8497591632619791 -0.020420156572829258 2.612895363604893 255 255 255
-0.6889957902776987 -0.5480930617629659 2.613327082656103 255 255 255
-0.5078115048582129 -0.12363071792282677 2.489498769266239 255 255 255
-0.5504738805647128 0.0673203801802113 2.4821700761907075 255 255 255
-0.46785583614661275 -0.03354336894853844 2.4389739228226532 255 255 255
-0.0048007365156036794 0.4151070999278107 1.7204349654698243 255 255 255
0.7830011267977277 0.451621811502839 2.293618780382392 255 255 255
-0.6819618624697519 -0.26705280130750353 2.600274509606484 255 255 255
-1.0383209707533423 -0.7342929701151267 2.683748967467643 255 255 255
-0.9045898959385463 -0.5399176851374164 2.6533075858624144 255 255 255
0.3947913701201802 0.18842330069259802 2.162625266787562 255 255 255
0.6725504090277773 -0.7521476544472692 2.386346056901649 255 255 255
0.17928744881580577 0.1873753690094559 2.2045234289147224 255 255 255
-0.6872040157378053 0.05564913903830302 2.4481319323514406 255 255 255
-0.14856671772496097 -0.3940644482638289 2.3761383889887915 255 255 255
-1.030456671445127 0.23610436349104613 2.633631804137138 255 255 255
0.20311239090431119 -0.30675679299743497 2.3507128221161886 255 255 255
-0.43241112599519227 0.2219786509830418 2.307224725768068 255 255 255
1.022565951928292 0.4230939646402741 2.253558755879341 255 255 255
0.9293497807136566 -0.35131106582946653 2.317614756915473 255 255 255
-0.3860530440652427 0.22234290798307182 2.300517091720169 255 255 255
-0.8014453409891967 0.5450371493924554 2.322450055192743 255 255 255
0.8741150179869804 0.12397922576741692 2.3052716012923704 255 255 255
0.7241380594107084 -0.8143354189629616 2.3856357644373998 255 255 255
-0.5249318858093537 -0.12527012505336146 2.486571265295247 255 255 255
-0.6649788063501165 -0.0116759974106652 2.5000143577520038 255 255 255
-0.9845532445171475 0.07434650544085655 2.6355226322456775 255 255 255
0.9952748175790268 0.36535864382150024 2.262842996306527 255 255 255
0.7929868078668807 -0.13382686845500055 2.3328476570017442 255 255 255
-0.5916983334903213 0.1871277501222464 2.340681305765996 255 255 255
0.6009188894722804 -0.8657867171059406 2.4060937987542093 255 255 255
0.9820384247272991 -0.03468772898928091 2.288409327168059 255 255 255
-0.2140523202042895 0.24653267757425254 2.267899501662287 255 255 255
-0.17540423242456 0.02587365470779765 2.3099528468606727 255 255 255
-0.6408288697646386 0.1930936310358443 2.3427742979338175 255 255 255
0.2675774531635236 -0.8545731877318448 2.464051187428409 255 255 255
0.6140094467614177 -0.08597092594160481 2.363377357291379 255 255 255
0.23094180946433307 0.22976847394797847 2.1912234512544324 255 255 255
0.844657754641096 0.16593841092120604 2.300633524175994 255 255 255
1.0274925623495073 -0.6522800913469878 2.317708720303846 255 255 255
0.19071557691600075 -0.14936262307723963 2.35774137347524 255 255 255
-0.6778916395848824 -0.6813018892618573 2.6220479953103366 255 255 255
0.7064101530202797 -0.7656228525037883 2.3793525222410143 255 255 255
0.942667508344928 -0.38129258647261993 2.316691707413772 255 255 255
-0.7491621894776834 -0.5897059691662065 2.6293132973502034 255 255 255
-0.869565791935177 -0.6285087121871734 2.6528007814143035 255 255 255
0.20290085080106823 0.22266018688794975 2.1967418989038583 255 255 255
-0.610392969778163 0.2036904061484568 2.3390630484555355 255 255 255
0.6221010498644227 0.057503293467391144 2.356787562443844 255 255 255
-0.04110349647849575 -0.7742336478201172 2.4322578879798273 255 255 255
-0.13580111382273571 0.26167177024808747 2.2537041918948333 255 255 255
0.6255417788939025 -0.15921219870675088 2.358982721264834 255 255 255
-1.1242800709960814 0.2924057535372452 2.6435106755022058 255 255 255
0.5775596682054396 -0.35068298838204054 2.3842649718345976 255 255 255
-0.22479741934881312 0.1954330313216072 2.274497720690934 255 255 255
0.7221678608668582 -0.6546112406803882 2.3687038735832826 255 255 255
0.5473582374870539 -0.3113466328151071 2.3819920900885805 255 255 255
-0.8743428242566847 -0.32443269948022224 2.6343229970708193 255 255 255
0.9522939193507114 -0.2656615657274477 2.3069226907086873 255 255 255
-0.6306772231399529 -0.6934811864261868 2.6156962688893444 255 255 255
0.7839108672630337 -0.27162429373610375 2.3396126349737028 255 255 255
0.9452300382739164 0.41010721783877285 2.269231815936705 255 255 255
-0.8578885852460252 -0.4309540678698254 2.6400907533048787 255 255 255
-0.9231908622975236 0.0015904477595654642 2.6258378510041958 255 255 255
-0.8908932445224439 0.03345587758520514 2.6165021830863027 255 255 255
0.9841725208575438 -0.0654748050393252 2.2893676931740465 255 255 255
0.927289466282166 0.07301135625345512 2.2895452076000002 255 255 255
0.8944948168155129 -0.5713591989082065 2.336407333771258 255 255 255
-1.0718185347362439 0.29321774439231846 2.6368484360394135 255 255 255
0.5841218854994277 -0.32455445395252147 2.3785654790199975 255 255 255
-0.8620456186204792 0.022603153083768604 2.6147846049087202 255 255 255
0.5276925668634945 -0.6328595781545275 2.4044668688294606 255 255 255
-0.6923849056341586 -0.6600368602634843 2.620816587175077 255 255 255
0.8610527270400444 -0.10254812086074379 2.3158994896393468 255 255 255
0.633887618421236 -0.1563877833877707 2.3576051016427897 255 255 255
-0.07790136845468147 0.20303563124879379 2.2484147488269492 255 255 255
0.3989921589113349 -0.7435178723531896 2.4372795781156125 255 255 255
0.6906042819283311 -0.369618735297449 2.365015458459286 255 255 255
-0.5000027973348036 0.19282092148268024 2.3227209835914144 255 255 255
0.9493189466797265 0.28490836783170925 2.276188964959311 255 255 255
-1.2177335225956727 -0.6801258834552645 2.7184278022119703 255 255 255
0.3220778812155419 -0.8680475837113926 2.4553282674277126 255 255 255
0.9526615518499382 -0.13849990439090495 2.3004511465467092 255 255 255
-1.1345168449337697 0.05664471548742931 2.6615780490770686 255 255 255
-1.0591072018246854 0.45097781404732057 2.6258118102184707 255 255 255
-0.0629259699826383 0.019482270674314576 2.3012294705683756 255 255 255
-1.2363597509468949 0.2703374554835129 2.663721448775049 255 255 255
-0.05850477605921779 -0.7606210601953518 2.3168415094121912 255 255 255
-0.9063329912561111 -0.4336810647967421 2.6507871905116005 255 255 255
-0.6327168598635246 -0.7828397328341096 2.616984914817212 255 255 255
0.8559186666913149 0.03933650738850218 2.308109376116744 255 255 255
0.5480697298621999 -0.6198414150087198 2.399373298012229 255 255 255
1.0136712130191206 0.4480056281541017 2.2485857745101434 255 255 255
0.28746204490156013 0.2241820200185612 2.180546057032364 255 255 255
1.0153569970179066 0.47040718375559404 2.238384117072105 255 255 255
0.4607300813348619 -0.8437631252925301 2.427297031700652 255 255 255
-0.7365675490726185 0.2535725941170171 2.3583497320716633 255 255 255
0.13910673023365197 -0.5651419456094372 2.3285837468670674 255 255 255
1.0189904833154624 -0.12914844720901386 2.289881244809074 255 255 255
0.8089638911375437 0.5013581767161758 2.249768727818275 255 255 255
0.949486743758789 -0.026240167328898088 2.2943832208691983 255 255 255
-1.1599917953038477 0.3529236929373995 2.645666576187295 255 255 255
-0.2221915796227745 0.22700146152938605 2.269603284178604 255 255 255
1.024552664250655 0.23820462252131505 2.265948803190536 255 255 255
-1.1132739221549994 0.2353271319546733 2.6434607883645787 255 255 255
0.5956863165457621 -0.35208859049733054 2.378138820909067 255 255 255
-1.095430905229876 0.23103514734079728 2.6429953464949594 255 255 255
0.9391100927614442 -0.436614625667378 2.3228103796836725 255 255 255
-1.2300611175838696 0.13592467182789988 2.6701569355655708 255 255 255
1.00832259983994 0.43763174969953794 2.2583219442912634 255 255 255
0.5696958087417399 -0.25589155911341616 2.3737113647207018 255 255 255
0.4465983873945088 0.49536987005768657 2.105791079890477 255 255 255
0.8303450790013129 0.43673012793666094 2.293269607256609 255 255 255
0.5822129956388055 0.08216943208740969 2.3541554999418985 255 255 255
-0.6827564682495706 0.07937021054683827 2.4483471836710664 255 255 255
0.7378402224566412 -0.5799591744442164 2.3653736268140224 255 255 255
-0.2762177940369987 -0.2162757173045718 2.379955412283421 255 255 255
0.5093213886279507 -0.3048605508449777 2.387905645795088 255 255 255
-0.4572527854018577 -0.3005977782064967 2.4679590629432777 255 255 255
-1.0488443013304132 -0.011116428452583557 2.65186085873594 255 255 255
0.6755360064181009 -0.23853839613484348 2.358035618961092 255 255 255
0.7321516950563752 -0.46601824680910997 2.359836726534045 255 255 255
-1.0443153408370065 -0.7454141698867472 2.6888768231497298 255 255 255
0.34091620871866424 0.18562530985286432 2.171363873024097 255 255 255
-0.9357854427533172 -0.46841328005100485 2.6526905240917675 255 255 255
-1.0917882373889718 0.2830246646665523 2.6398939402541237 255 255 255
-0.015234275773615297 0.28885593530769726 2.197844666751566 255 255 255
0.704400058550334 0.060307348527352755 2.333559157948473 255 255 255
0.8469998617747528 -0.5428789744179918 2.343621040999787 255 255 255
0.7385220064827647 0.18449492685315994 2.316945743738121 255 255 255
-0.15329205465186108 0.26131929099266066 2.2559256410457023 255 255 255
0.6937059861497287 -0.741262143211061 2.38386973976315 255 255 255
-0.9193834864800038 -0.42217924971050313 2.6524615054974587 255 255 255
0.4510571468724052 0.18504313985322773 2.15437763960891 255 255 255
0.5352199297345992 -0.8585253400489795 2.4201900488707597 255 255 255
-0.686575241200968 -0.39836279348523584 2.6105161921141744 255 255 255
0.6555337300916241 0.017646517675295306 2.3464550998880056 255 255 255
0.7619528094369618 0.5064351111269755 2.2577533977854696 255 255 255
0.5132943486549575 -0.8420485266527531 2.424240181214923 255 255 255
0.8540584369861167 -0.00860780306088479 2.3138425668117346 255 255 255
0.9768511814016662 0.21198279985396346 2.2803707217397418 255 255 255
-0.934208212130853 -0.4239549834165545 2.654144382262369 255 255 255
0.3287449954775392 -0.6802065287523068 2.444582857090729 255 255 255
-1.1950707895646604 0.15190850749452067 2.666887057443414 255 255 255
0.5271218886159161 -0.528549843331621 2.4011593757665617 255 255 255
-0.8366555496791057 -0.7403519304167586 2.655376170712087 255 255 255
0.8024060790195382 -0.7440604494654297 2.3687701164097206 255 255 255
0.052065277192502396 0.23143133693784324 2.223229901021282 255 255 255
0.7949031333610461 -0.2693127781505399 2.3400169838446017 255 255 255
-1.254225352807019 0.37082829782015175 2.66473964299215 255 255 255
-0.7411541033798654 -0.6544638267646952 2.629257981876871 255 255 255
-0.9840757860775908 -0.17902724125364958 2.646282717340943 255 255 255
0.8828295440244429 0.06614604682078866 2.297358285136003 255 255 255
-0.701445226473494 -0.6527319353766508 2.621777016905785 255 255 255
0.9712370382909591 0.4403384547139304 2.266748502287749 255 255 255
-0.7235328649069578 -0.49846879017167384 2.6158552521061367 255 255 255
-1.2282121267808304 -0.6079043879467608 2.7066253462140435 255 255 255
0.9286483299337978 0.3395528845552623 2.279921390536772 255 255 255
-1.013531388602843 -0.04562108916661012 2.6482818090538682 255 255 255
1.031330107323309 -0.758342794865606 2.3252161386169257 255 255 255
0.8956785195318092 -0.06431715848888042 2.3043577163352524 255 255 255
1.0405187446357484 -0.15769453977288575 2.2874479407326844 255 255 255
0.3742961744063407 -0.4555819583252842 2.4220110493249294 255 255 255
0.8646171296266083 -0.45622801193641305 2.340453499726308 255 255 255
-0.13583289169395302 0.1840836072172766 2.2585956951329074 255 255 255
-1.1328110763460604 0.3388716609010598 2.6462609957659713 255 255 255
0.8649737769839352 0.2724453954639475 2.2900934848314263 255 255 255
0.9081107158250655 0.442009962812167 2.2770223345905714 255 255 255
1.0076712502993472 -0.4400906098974012 2.3131228508354957 255 255 255
0.9645763167456874 0.34587860252989067 2.268117383425943 255 255 255
0.3360705620861516 0.1616592737483497 2.270732256476752 255 255 255
0.6502436048735662 -0.7683794246645973 2.3915464374846653 255 255 255
-0.9295141315826342 0.4309698427204119 2.6031620299212985 255 255 255
-0.7918306537466534 0.5377394663545028 2.320956607190943 255 255 255
0.6443928277062925 -0.43484735164428556 2.3768702326635243 255 255 255
0.8341756461555904 -0.4202686041157145 2.338610927327611 255 255 255
0.9913829232724443 0.22545830192683666 2.270795900907516 255 255 255
-1.2644409464700759 -0.08134470407564068 2.690132164358659 255 255 255
-1.0665023938953653 -0.06602887649375166 2.6541248228321983 255 255 255
0.8920957168767687 -0.28358867104414837 2.3262685249831816 255 255 255
-1.1099549163517297 -0.4390616802955297 2.676879886218644 255 255 255
0.9146259124080319 0.3238763733476926 2.2817200622372074 255 255 255
0.49784091563671296 -0.5245561223037358 2.4068211665829016 255 255 255
0.8413062925400083 -0.29936845250230126 2.33087145959329 255 255 255
0.7190522209867483 -0.6921197312978475 2.3803053928732236 255 255 255
0.483983336706184 -0.3457023662611503 2.3954409111574533 255 255 255
-0.042645456069221516 0.07327279170060054 2.319104289463216 255 255 255
-1.167740505725335 -0.518491507132191 2.7069587894697267 255 255 255
0.44370438560229836 0.03983288542198904 2.2645978163782585 255 255 255
-0.766726768964184 0.4204924351924567 2.3465315086581215 255 255 255
0.3461011034489327 0.21561904359383421 2.1694086078592396 255 255 255
0.8390270299050878 0.16021961809526056 2.302346675507219 255 255 255
-0.6630812841790673 -0.4904818836970712 2.607491048004712 255 255 255
-0.6891935592121955 -0.5575822622586187 2.6167653085378872 255 255 255
-0.8864189437839703 0.07519551763033083 2.619972475554769 255 255 255
0.6886193774501869 -0.10070207040768259 2.3520701907194987 255 255 255
-0.7541487103592851 0.178585613459482 2.3652656684842652 255 255 255
-0.4505912326925543 -0.3111344907967786 2.4685480684262693 255 255 255
0.7276738416438782 -0.3879829673273894 2.3560845879363437 255 255 255
-0.9518387338201023 0.35562148160855117 2.617048359823087 255 255 255
-0.3794161594642353 0.22008264252872597 2.300292914762787 255 255 255
-1.0167615643132153 0.10031672945686528 2.637588721311597 255 255 255
-0.06929302001397701 0.21988190693544374 2.2443023346386117 255 255 255
-0.3173105082435177 0.2639009921534987 2.283263427753518 255 255 255
0.6800923565869397 -0.443563846800944 2.3675057053274102 255 255 255
1.0128283173791268 -0.19005056636801526 2.2892431814786285 255 255 255
0.5350991003198934 -0.28985895472473505 2.3877053132082917 255 255 255
0.49112048335756553 0.1780998841989183 2.1464061302442867 255 255 255
0.7965661016420438 -0.03963290020768927 2.324746506588109 255 255 255
0.12952997330517732 -0.6891709768258412 2.3211360006590627 255 255 255
-0.5617654542121844 0.1931660840835792 2.33554602693268 255 255 255
-0.06910065817071444 0.22113184798405852 2.244212431640514 255 255 255
-0.2858863241422434 -0.07658522331629002 2.3828111410708863 255 255 255
-0.8386730581871285 -0.6688089094465797 2.646712682582618 255 255 255
-1.2795566930484696 -0.33707429151768253 2.7011174845945276 255 255 255
0.8903370893829722 0.21270983496024465 2.296184133593735 255 255 255
-1.036680259060491 0.4345252145883274 2.622805865303513 255 255 255
-0.8983613957669123 -0.07041645624680104 2.628197606110142 255 255 255
-0.9049473561500524 0.04500237062060905 2.620771849104466 255 255 255
-1.186289464958072 0.31814349385328233 2.6531472899284974 255 255 255
-0.0456716674527406 -0.4616952466677668 2.3590232850605735 255 255 255
0.02444916333896723 -0.21574118135138623 2.3233246513938397 255 255 255
0.9621601445212197 0.26293335137332674 2.273539019111469 255 255 255
0.39590582728181195 -0.6828302553207634 2.4368840074861504 255 255 255
0.8457845278295946 0.1000746059660976 2.3010664087035453 255 255 255
1.0520789800132724 0.02145937977632945 2.2730618941241167 255 255 255
-0.6572030377664863 -0.6149768219318422 2.6260678176660748 255 255 255
0.8176289820690741 0.10928269533538165 2.3198663806504025 255 255 255
0.6548079448627043 -0.5439876522050686 2.3787018492073306 255 255 255
-0.933994602886462 0.23161713394231354 2.622544547755694 255 255 255
0.7090764660188607 -0.7749580171535877 2.3786834928160663 255 255 255
-1.1636563984705883 0.08077734282853827 2.669686507175611 255 255 255
-0.6470529354553913 -0.6238679799087535 2.614459096724174 255 255 255
0.7353686142895676 0.3455189758535522 2.3173611949842905 255 255 255
0.8864031416051495 -0.1099851985334476 2.3100593431724303 255 255 255
-0.4213292282519853 -0.1270905479538419 2.46611308023412 255 255 255
-0.07465419367080788 0.039839411355677 2.3001066569915065 255 255 255
-0.9462288953546989 -0.4445522693821892 2.6556750685600905 255 255 255
-0.9782518908381221 -0.32608439847686055 2.650689783106069 255 255 255
-0.6291672220747457 0.18654011369997966 2.346650050442372 255 255 255
-1.2240380479001174 -0.6024808937063131 2.703959936042203 255 255 255
-1.1192262289575796 0.3027143412795128 2.6377412817854213 255 255 255
-0.159446948103886 0.03420020378310842 2.3099524388541193 255 255 255
-0.21149122113874833 -0.18233324201760182 2.3709868624218187 255 255 255
-0.9811246771107512 -0.3769031846732515 2.6571319953564236 255 255 255
0.9119142715047386 0.24616106883640385 2.2829849713782657 255 255 255
-0.9952020594820772 -0.688289734034013 2.6776251977132537 255 255 255
-1.0101296014765067 -0.01445160429199458 2.6414284106396804 255 255 255
1.0378574797958362 -0.623445886379244 2.3088449341301898 255 255 255
-0.9763899226244744 0.17102948825360803 2.6249304017680877 255 255 255
0.46481050721093004 -0.4277850960337367 2.4073700946964465 255 255 255
-1.1754505611419541 0.3144724067412167 2.650876386504039 255 255 255
-0.7163983292321644 -0.5237384726712497 2.625467002545949 255 255 255
0.8661622295678185 -0.6536454236225642 2.34872468317643 255 255 255
0.30916373295328864 0.156482566362177 2.1795249418517075 255 255 255
-0.4620247269350015 -0.2957233705019389 2.4683445209075052 255 255 255
0.5147131083637112 -0.459198179665264 2.40340057282514 255 255 255
0.7493207271226754 -0.2705933009526764 2.350237200154467 255 255 255
0.6978809398505095 0.4205309365029694 2.316475189741813 255 255 255
-1.0494453697709862 -0.16828420034318065 2.65673986310521 255 255 255
0.9050591281597381 -0.4333702950973112 2.3301387702117036 255 255 255
-0.2839309264928982 -0.5072520049430158 2.3519939656208737 255 255 255
0.740326165533748 -0.20070015920561216 2.341396772022474 255 255 255
0.49274125980804195 0.15439056953461605 2.188236039656017 255 255 255
0.9554625507234232 -0.6820924963718128 2.334031205688469 255 255 255
0.975726229529238 0.43041632341553243 2.2616837032850956 255 255 255
-0.1887501376378638 0.2588713777391657 2.2635636284867324 255 255 255
0.5754147919138655 -0.831916860699164 2.4097033090533024 255 255 255
0.20813618576169943 0.01587793320444199 2.3446876897804696 255 255 255
1.0331111523464762 -0.25450757675332447 2.2917278536780734 255 255 255
-0.022194336462590204 0.25792682531359096 2.2331751975770953 255 255 255
0.4300813404697882 -0.6773408325294011 2.4373731751616656 255 255 255
-1.177747527573058 -0.5720889398016891 2.702123669860635 255 255 255
0.7256260272533133 -0.7434582452778385 2.38042216008195 255 255 255
-0.923476630061861 -0.48591809395104524 2.650741592067187 255 255 255
-0.9692650189610512 -0.1610501364788859 2.64524375192943 255 255 255
-0.13537021294347018 0.23136344938702938 2.2577799251405346 255 255 255
0.8524371075729957 0.013908680860463353 2.308698459366136 255 255 255
-1.1350830639773186 -0.38466351964289774 2.6823805899029245 255 255 255
-1.1708425453554345 -0.2592215282455686 2.6794528672126083 255 255 255
1.059598338027311 -0.22740936043924023 2.2875856231069642 255 255 255
-0.9682493513452776 0.08059098591891843 2.6345533317303773 255 255 255
-0.9195415200674916 0.012935735861313441 2.627654514023583 255 255 255
-1.2500910133349823 0.2547070583261226 2.668268574940722 255 255 255
-0.6810139041187399 -0.7223792698122498 2.630228188854393 255 255 255
0.8672722807495139 0.41213507357559587 2.2831510667418504 255 255 255
0.41231490057592984 -0.6973564817246534 2.428463157548022 255 255 255
0.48703928185444517 -0.26694280654604546 2.393621603914019 255 255 255
-0.15852052216659435 0.1905295414754976 2.2610253725283753 255 255 255
1.0050869456233584 -0.8290787584885128 2.3291308998259788 255 255 255
0.35908644549879176 0.17148715306698017 2.1639172936713007 255 255 255
0.0981018386465746 0.21581817637949063 2.214332089924362 255 255 255
0.8849834505358396 -0.21665629599803415 2.316899946203966 255 255 255
1.0072824619902676 0.06699512659385064 2.2769159329866193 255 255 255
1.0419785259374557 -0.28840909109218665 2.2930926425026326 255 255 255
-0.536373346232504 -0.6941070776132969 2.592558575456652 255 255 255
0.955733901587993 -0.210533649570019 2.305319061824546 255 255 255
-1.1559028212373585 -0.6058254353099685 2.7058996898265413 255 255 255
0.693467566450068 -0.7317651371342557 2.384593997581127 255 255 255
0.7789097069497741 -0.6531057545482543 2.361939284388745 255 255 255
-0.7772999019397162 -0.6403786783318826 2.637734023021158 255 255 255
-1.217315264703943 0.3404929978752174 2.657775174199945 255 255 255
-0.461149252825174 -0.1674582326257015 2.4731782601402035 255 255 255
1.0093418641483631 -0.4082032571158153 2.307389541461687 255 255 255
-0.6622923896598412 -0.6356045009865677 2.6143044159728683 255 255 255
0.30669484507781186 -0.634192906338822 2.4508295914599705 255 255 255
0.7040415267030545 0.09782336945185283 2.3284405767082226 255 255 255
1.023314472631046 -0.29321506067827924 2.2968530367553144 255 255 255
-0.8957408927885254 -0.08106199398862515 2.6264976195669236 255 255 255
1.0010854272075744 -0.4757836443235515 2.3123685478711757 255 255 255
0.7640399206231192 0.11040304038166139 2.3166034232000237 255 255 255
0.66044858594186 -0.23043814408615296 2.3607206943908605 255 255 255
0.9177614257327412 -0.6551014920119573 2.3394956726243206 255 255 255
0.5740701606957476 -0.8317782103897026 2.4105550562531084 255 255 255
0.7649531617957923 -0.46460739343857377 2.353145863658398 255 255 255
-0.9436509880817925 -0.03341049110490169 2.6314352470494358 255 255 255
-0.6541695116048905 -0.7473514443086411 2.6207964400659214 255 255 255
0.5591901003517544 -0.5539903018609962 2.397323201549789 255 255 255
0.6056176171206684 0.049137982515110354 2.358662466693734 255 255 255
-1.2459233725645154 -0.33295290437993386 2.69824106288725 255 255 255
0.6939533739905601 -0.44150782756195145 2.3690693827609124 255 255 255
0.8898199752926456 0.11363692535718747 2.301397477737067 255 255 255
0.9600433900017907 0.3416823555089472 2.2742468997623577 255 255 255
0.8460700237810762 0.26340107685033387 2.296097188629485 255 255 255
0.478755309398618 -0.4788217934951898 2.405070349849003 255 255 255
0.3719200697281568 0.18673937615670705 2.1708462453669743 255 255 255
0.7912743928129552 0.5038010455879198 2.2529092187973996 255 255 255
0.8774142489494817 -0.49360066704864225 2.338300604632736 255 255 255
1.007118248001512 -0.46922632446678786 2.3110286872743817 255 255 255
-0.13759121850153821 -0.09395623225676347 2.3605121653013237 255 255 255
-0.502754380649716 0.5030392950471847 1.7787526978839694 255 255 255
-1.0492157022237214 -0.001858062780388752 2.651310723893781 255 255 255
-1.0335225964403036 -0.5305345363779744 2.676802732163789 255 255 255
0.27930675650651576 -0.6631694070500205 2.4521833547529814 255 255 255
-1.1735028268488745 0.24040393634241142 2.657723715280235 255 255 255
0.8868539186316503 -0.37720370486124366 2.326368237183425 255 255 255
-0.9626739739940834 0.34620024725514936 2.6150854677766913 255 255 255
0.7480701253958079 -0.5702815232878181 2.362816737177839 255 255 255
0.5804000210413285 -0.6348984797563135 2.3961455435236547 255 255 255
0.7994819312571403 0.11971848536980527 2.324013580368416 255 255 255
1.0245769369044668 -0.27421254004565926 2.2982974492835155 255 255 255
-1.1889300012277966 -0.49485998683993954 2.695791544237665 255 255 255
-1.227971127807342 0.3327667600270374 2.662747287817427 255 255 255
-0.5352796578875254 -0.6642865839878981 2.5949239154006616 255 255 255
-1.164865794616702 0.24646192872490638 2.654475700270341 255 255 255
-0.498680370252219 0.2329398980223007 2.3195884187526397 255 255 255
-0.0667188307247193 -0.23804668119515265 2.362871447466642 255 255 255
-1.0811123351312795 -0.24978764849040125 2.6652373007585606 255 255 255
0.6972110362908602 0.1075465437712916 2.3324803054154297 255 255 255
0.5756246702986285 -0.47120841151871234 2.3878856217287643 255 255 255
0.8032531388800933 -0.5740341270312184 2.3508311414412577 255 255 255
0.2996853373380588 0.15655093234646866 2.18315599789082 255 255 255
-0.8687796694602046 -0.13184475128192025 2.625197445282829 255 255 255
-0.9174596954532565 -0.1772152656167564 2.633040063607546 255 255 255
-0.16808841086310777 -0.4057941584657089 2.380983204038873 255 255 255
0.7519076146801856 -0.30762517612935475 2.348969862989744 255 255 255
0.5201329564542904 -0.6990870477606567 2.4089058783808817 255 255 255
0.9628073448631508 0.0908213354505638 2.28447588858616 255 255 255
-1.1323832615566414 -0.33072583972162667 2.6779261700196115 255 255 255
-0.15403594265713308 -0.27807095637048246 2.3646142943675894 255 255 255
0.717092691248077 -0.6136585329049438 2.372925875286309 255 255 255
0.45001439347384803 -0.7671373652903041 2.4281640527516246 255 255 255
0.9621866305899706 0.16047056112890673 2.2815506920391773 255 255 255
0.8744758991434431 -0.21988637219809887 2.318562886806207 255 255 255
-0.9214742472993402 -0.4564503393009992 2.651141533488134 255 255 255
0.5731526623419954 0.06866417451862332 2.3542389095143115 255 255 255
-0.8614957471045844 -0.46452963838439776 2.639240634929647 255 255 255
0.9155945284904579 -0.13853888059593894 2.3079713822793875 255 255 255
0.8555310112047495 0.09837689167298252 2.307200440520762 255 255 255
0.6346917706253999 -0.4020260103920993 2.3738371523761654 255 255 255
0.696322888648427 -0.6053098497855525 2.378482507782347 255 255 255
-0.7145340244899067 0.016540440651347296 2.4779545014263196 255 255 255
0.6777923672003503 -0.609017136041966 2.379447419521128 255 255 255
-1.1943799286118517 0.04594179410896491 2.6674171505107247 255 255 255
0.2578096814119753 0.22000472602206525 2.1882756441248548 255 255 255
0.8307999714619816 -0.7381010836970092 2.3592807299183876 255 255 255
0.7659600334153763 -0.554348578587409 2.3657652244090914 255 255 255
0.592368796599681 -0.6132464795130744 2.394164096853386 255 255 255
0.9293953458378257 -0.20192400882380163 2.305430180815764 255 255 255
-1.2718797888459965 -0.07576513597659082 2.6881807961002244 255 255 255
0.6932278260041743 -0.6969032568495219 2.3839782763762494 255 255 255
-0.670079716787076 -0.4401310303055503 2.6068695206972268 255 255 255
1.065173396855528 0.4405349251956455 2.243072432411842 255 255 255
0.520243642254401 0.52732144676826 2.089665799839494 255 255 255
-1.2557603981298546 0.40359766046026985 2.663747044043779 255 255 255
-0.8281196997800442 0.04688034389445791 2.6070064286298518 255 255 255
-0.6763329104306774 -0.380310719815641 2.603071200322747 255 255 255
0.8052580976924356 -0.08126974211522132 2.3247058902774844 255 255 255
1.0437365944857475 0.566355925866388 2.191623369737256 255 255 255
0.741195551076153 -0.7372408731294847 2.3708282013601485 255 255 255
0.5926296569230945 -0.7114287071599198 2.396814103383338 255 255 255
0.9575811861397705 0.37927846504356216 2.2692860059424107 255 255 255
0.7159936596225661 -0.7839302064375806 2.381314508980699 255 255 255
0.9309006488299121 -0.7775647709618527 2.3417698107652294 255 255 255
0.7772323431005373 -0.17394089902260856 2.3370996421784755 255 255 255
0.9731456313708393 0.018038362875358722 2.2859727674921593 255 255 255
-0.3441627415399391 0.265360525398937 2.2595364724411313 255 255 255
1.0189878925507416 0.1327646768681947 2.27192629066477 255 255 255
0.9181349692361589 -0.20899942164679225 2.310572127405701 255 255 255
1.0243169255142395 -0.05739141562712294 2.280356965195872 255 255 255
0.3662494424658381 -0.6430271854981318 2.4337328812351475 255 255 255
-1.0948989257294262 0.22087575470669316 2.6484729538451557 255 255 255
1.0154513157359535 0.4347509582782968 2.2552115467473297 255 255 255
-1.0577194840298259 -0.3167852837170991 2.668632039873744 255 255 255
0.76936069757733 0.3688494683426664 2.3069726534556905 255 255 255
-0.1595682803679276 -0.12496522764345291 2.3232866874400764 255 255 255
0.5436236043489548 -0.5406699052498679 2.399796357373191 255 255 255
0.8210296894343706 0.20206806093534077 2.3070617394001887 255 255 255
0.7436149226194062 0.3265684688214661 2.314964795444903 255 255 255
-0.8912146415647082 -0.4634206388976899 2.645603950888843 255 255 255
