ply
format ascii 1.0
element vertex 708
property float x
property float y
property float z
property uchar red
property uchar green
property uchar blue
end_header
0.8415662392954936 -1.3909568116136541 5.00878342150949 53 46 62
-2.3190935076865458 0.5264390607798567 8.675905242607568 109 90 109
-2.3735826401272293 0.37466570977046854 8.681698713859651 159 175 224
-2.3537158058700305 0.3537822835000061 8.699011532113362 162 178 227
-2.3949437249615335 -0.9623252419042494 8.73091425677175 166 183 235
0.8199501984452604 1.128545063524959 4.833271767465443 129 119 143
1.0941485072268056 -1.6274089929596376 4.764400545600864 63 46 64
1.27499395865947 1.2863720095967923 4.163546059061706 109 101 150
-2.31084127115049 -0.8317405393148772 8.708100678348696 124 104 129
-1.2102821398982135 0.6588427694470614 6.857936725066004 117 57 65
-2.3334427242393128 -0.4749457466901034 8.703725557756417 98 84 101
-2.372782218118195 -1.1450369243963123 8.752976640002316 163 184 229
-2.3449307271835944 -0.8724333535046462 8.741661001096814 119 102 121
-2.3337734326197754 -0.7886583190899217 8.717076818472204 110 90 118
-2.336033847946154 1.0189787223206708 8.69982581259219 148 166 212
0.6715456999221749 -0.9954432921951658 5.153354541304098 134 106 131
-2.312162947676052 0.6979361130694653 8.692384994147963 108 90 106
-2.3722268388273604 -0.9445668590394591 8.740587843891936 167 185 233
-1.859261346395387 1.361062366028482 5.4412387221847 157 113 136
-1.9325518564783475 -0.29233784593133405 8.194943227683272 54 45 62
-2.3914908200777547 -1.524304842752552 8.763273355206804 171 187 239
0.7433295040989344 -0.9824485869721513 5.085414587157633 96 81 100
0.8796734273191079 0.44961049417482674 4.814408956119897 46 33 42
-2.3479835788327317 -0.9144153138759528 8.736041197033282 123 107 133
0.7870176683097876 0.4674156299271664 4.923736800907213 131 118 136
0.8881107855915117 1.1848409198709808 4.7440209405287295 103 77 90
-2.3448769417644706 -0.36436953637036934 8.719375444728769 113 108 138
1.0456614789211476 -1.4138497577246918 4.802125263639649 45 36 57
1.1233000633420562 -0.26342365669067663 4.622383829586661 41 30 36
0.8908638009206891 0.9257776751573413 4.772695213680451 65 49 60
-2.311681623082058 0.8405993545491258 8.656978788845349 100 87 105
0.6937230490555432 -1.4382057532856354 5.158007091180845 141 120 139
0.782346315631789 0.41830346304997607 4.911589683292658 129 110 130
-2.368581495140076 -0.8317215728869735 8.741518581636809 166 185 228
-2.287583496074888 0.08175821092377664 8.704580024216417 104 85 113
-2.3330957368015914 1.0250436765662736 8.656669579482788 148 173 214
0.6436588377045488 -1.0971826719069637 5.1837969184522015 81 58 68
-2.01175203694463 -1.3016873611185666 8.3163266856548 42 31 48
-2.3458993671290598 0.4587206745071136 8.690656794301749 155 178 220
-1.7363542053333951 0.05438375035821619 7.928268537742031 51 40 48
0.3987424057237803 -1.072051694116036 5.451131662569256 100 83 99
0.029799551577122534 0.625944054293479 4.997996622908091 58 28 40
0.664040610589102 -1.288829343732387 5.181409001594959 70 50 61
-1.9013646351828581 0.694200168337683 4.156315118242415 120 67 87
-2.3735870606593847 -0.9996480474896425 8.783876291200233 171 189 239
0.5852414369347932 0.008838507146964039 5.179401432376199 77 59 73
-2.3182043848716134 0.8036971375019778 8.675369538171596 101 101 129
-2.3049411687667076 -0.30559359429679095 8.755055496985786 124 105 125
0.974350886021075 -0.7911218980416918 4.822288308966933 67 46 61
2.694090964720619 -1.3637618087472037 4.997352229096689 161 174 218
1.0943313742547496 -1.6278881475229503 4.765008417164564 64 47 65
-1.1122760680922772 0.0803757544229702 6.879547769504294 123 70 78
1.2309373316002885 0.5741835158472227 4.433358530987754 125 98 113
1.009250934709376 1.1357438619780347 4.620986648900849 133 119 134
1.158894455428531 -0.2999923905421442 4.574603870815724 129 106 126
-2.368955867207312 -0.8021357151736005 8.736416281200476 166 183 227
0.457812602552442 -1.2604483634889907 5.39362361794243 115 95 107
-0.15324816396498778 0.7413720380876972 5.195380558043335 74 34 43
1.087154180456295 -0.5940894739878736 4.688210014333126 129 108 127
0.8895407998725833 0.9256759627082205 4.772095846254263 65 49 60
-0.4298155992240075 -0.318175835003529 5.717353634762366 110 69 83
0.9999458770434517 0.18035412489800504 4.701798163661881 139 118 137
0.511289608622801 -0.5523710078783853 5.296276204864615 102 81 90
1.1006225848515216 0.7462464579912607 4.555638299967038 65 45 57
0.08274166083336557 1.2542040713486908 4.779339416223247 172 119 145
0.9938830007343196 -0.24135983185695856 4.7623197153078936 127 104 122
0.08365304946905344 1.2229728712341423 4.8710771223375104 128 74 90
1.0653732743563205 -1.4046208494915675 4.790973507915777 117 102 125
-0.7701396352034787 0.6957673136418385 5.914831295438739 129 147 197
-2.3342080187775838 1.003010084711738 8.658971913707907 151 170 212
-2.359646656719183 -1.0351525591704513 8.753072839656904 120 125 163
0.5818408017112744 -1.2522196272529365 5.262433130818975 126 108 132
1.0091263929651804 0.26605862429792804 4.686921766955639 130 113 131
-1.8814847589029937 -0.2950907477306302 8.11063630869654 53 38 59
0.8531021028196546 0.4492416674961962 4.833323823789786 50 34 45
-0.6593388938735728 -0.9181350759024979 5.99890141720474 122 71 86
1.1587283269377557 0.37776527463882725 4.520638127269861 146 120 133
1.104599239936511 0.1039331759206149 4.607233697363806 132 111 130
-2.3238388651156936 0.44555950712003606 8.660043782088351 111 93 105
0.7114934494881927 -0.7719949532696218 5.100307472842902 126 95 110
0.9265884594144135 -1.4242665131048913 4.913411745014326 118 89 109
-2.293680763391059 1.3293700169820617 8.637606239599597 82 73 94
0.23147497816452325 -1.0536100801481347 5.633157987650559 101 69 84
1.1275729376236545 0.626910091301993 4.525860669742973 128 107 124
-1.892165959692495 -0.11038252125376742 8.124595736176753 53 44 63
0.7549524629340205 -0.4295092843427657 5.0352676780306265 62 55 71
-1.969328651784598 -0.4610399222968418 8.211560326019784 56 51 74
0.8736319392278219 -0.5850557929565906 4.9054697247466015 95 67 82
-1.440514371655942 0.7949089670923642 6.7271399812582 48 35 42
0.7782795699704833 -1.0967417567288673 5.054181684428773 133 118 141
-1.5515678795133312 0.7025844052708746 7.108721458420037 150 102 118
43.477203266309566 15.375672573309146 91.47205717706196 152 126 155
-2.299404149349843 -0.47232025562002805 8.569610557235517 110 94 105
-1.707970706550975 0.7932225276752802 4.747830687018913 112 60 72
0.8796098300931535 -0.9251689818913388 4.919798896898314 136 114 127
1.267892493653027 0.09263267952584185 4.4334203866133 112 89 107
-2.360062066138096 -1.6192451311941645 8.759035349336871 105 86 114
0.7187081105864819 -1.4353539381479814 5.135473106205745 88 63 84
0.03859852475496055 1.22334105433937 4.921064052932543 133 85 107
0.5859131898424619 -1.0864550911607065 5.249751001651134 86 65 74
0.7275009150209187 -1.342094945513767 5.124662819213968 117 105 129
-0.024217660654255197 0.9162681804933692 5.00834849151272 60 30 30
0.7964217146335666 1.154148711195301 4.838406776587166 135 111 125
-2.315446417989421 0.9826642212618715 8.669459328603779 104 91 111
-2.2780242690216532 1.0456201561580887 8.618627665093388 102 90 112
0.9154946863563441 -1.4085810530205283 4.921228572937061 131 107 129
-2.3333648011883437 -0.16698568025620783 8.723929392934856 127 108 127
1.0978226923512102 0.767280957046526 4.549885529247939 138 115 131
-2.3570334211649024 -0.8476644625726466 8.742699374421703 114 123 162
1.0509807421457924 1.1349796647952064 4.561029707242483 105 77 92
0.8427127517847179 0.9521123342095659 4.8164926273462205 139 129 163
0.05494001671104723 0.643188911058991 4.9717286713888456 109 77 98
1.0225785493486395 1.1079463525135593 4.614464022199244 94 70 83
-2.0125716831599307 -0.09653742551836675 8.300383537207374 62 48 63
0.06346312531288055 1.236652815845631 4.8683322754061225 160 116 143
0.8084762773592065 0.3088373491131336 4.909306002529696 143 124 143
1.0502064057160265 0.14902146059487256 4.6579471232746945 135 116 136
-2.365297599566961 -1.5008046767849994 8.763860773700486 110 106 141
1.2832730441178632 0.7875948123170945 4.345244124273246 98 69 73
0.5958110101582371 1.2841828881558477 4.92826849782898 77 69 90
0.6404232005091919 -1.3015344350700988 5.202534099429381 121 100 117
-0.3740466924863569 0.7542789707662629 5.448148048587026 135 87 103
-1.5548639503364285 0.8440573179741772 5.039236939736646 115 62 78
0.9111930697826414 0.9347536952274508 4.738315034685936 119 101 125
-0.0069954112601859865 0.9472495642826765 4.995637845338612 111 64 80
-0.07757083701861468 0.8745690024364345 5.027289126655488 55 27 26
-2.287450078135212 -0.29574474494361397 8.667701613622025 110 95 116
0.6864411700671836 -1.0931200480949104 5.14825683740547 137 119 141
0.5872777752095053 -0.01577589676296715 5.164611482209014 135 107 130
0.7680649100149849 -0.5836045407343055 5.033901822417622 70 47 55
0.6130749484470245 0.5426842467406856 5.099300216314162 83 60 78
-1.9778612968235645 1.7133481483695459 8.048220434737189 58 58 60
0.6964201791651268 0.423207951789505 5.001763050564318 95 70 92
0.09167426601960078 1.2565090515361597 4.789854183703155 173 123 148
0.6517828240054935 -0.38567710649122366 5.141050373778063 125 107 129
0.5442923337310344 -0.7547006672564008 5.270031061702532 81 63 77
0.6322665471605943 -0.19318941748595733 5.138148248921641 150 127 143
1.202708807343254 -1.2182589394409997 4.626676478046552 76 61 80
-0.6284317862453349 0.41748991245676675 5.912230644338042 61 32 34
0.8802227186112387 -0.9809321706978025 4.924292361496271 73 59 74
1.039155226409361 -0.6022084814757026 4.742053083994525 57 40 50
0.8244781157923757 -0.9779013790744673 5.000398883392506 72 59 79
0.9962044023986861 0.7436280183776245 4.657621381720002 127 104 120
-1.4044837552361933 0.8266136733329257 4.86350822951674 110 60 72
-2.303672209332694 -1.0969831739294102 8.780674242859424 116 102 128
-1.557175275744319 1.3190192143521824 5.068632842691515 155 115 141
0.7962983574036279 -1.3036536147418214 5.042576243377289 85 59 70
-2.3564744379249336 -0.23573250284121108 8.723023323801673 154 172 212
0.7810163400573589 1.1323909595946893 4.867489034320715 135 117 133
-1.3236425874121696 -0.8409946997267026 7.456904325972663 130 107 123
1.0745487246453853 1.1165663197531062 4.550681958359219 37 35 46
0.6379266343422069 0.3113000258553998 5.099734401015438 80 62 76
1.1942656729615257 0.28139434392809776 4.495008326190172 132 106 119
-2.3062832849732944 0.756364921009048 8.687094745763952 107 90 109
-1.4971381305530287 0.8401970612803592 4.981368774470509 112 58 71
-2.3554192005005232 -0.6388527082154074 8.729345904286207 121 129 166
0.8703498698911002 -1.3119084524051419 4.987817194857888 82 60 73
0.8177470765128294 -0.963281076210201 5.021000832848614 140 116 132
1.2006920711501805 0.24883131918965198 4.490866577084213 121 95 106
0.7406779969325463 -0.21431558755852645 5.015262978801215 116 97 117
0.7045737147969423 -1.1628389677564759 5.128624447683789 71 55 66
1.0324771365320837 -1.4132154606410947 4.816309449257636 48 33 56
-2.3144154292705834 0.75100822467142 8.657957223244834 108 95 113
-1.9595106232871302 1.3882290568135724 5.499425342238224 83 44 49
-0.7793089725156422 0.3089299075201422 5.945682140247352 56 46 37
-2.3306298880880627 0.2677651219429506 8.685342710889788 110 98 122
-1.309517191722085 -0.9326332186497085 7.425904718579178 63 46 56
0.8751941614482011 -1.3942011232722513 4.977514924095634 58 39 58
0.7282860040133526 0.6597518701899757 4.966991936847916 127 112 131
0.11164921166804788 -1.1357546994219665 5.764247190511092 112 83 101
1.012826040882023 0.6067180072611328 4.67109316458181 103 77 86
1.1720075806138717 0.42493885886795607 4.49779355621128 139 115 129
0.7331716002846022 -0.9932499413746297 5.095867801840214 113 91 104
0.9235086006683176 -0.6124867085783691 4.847875475703063 124 97 116
1.2679793902118752 0.3825519268539501 4.413589254564567 112 85 94
0.05010597983577887 0.8269598973721168 4.8460135540095 124 71 81
1.2884018125968386 1.0875680416268503 4.321932745734506 105 93 107
1.0152448838090542 -0.025945478572800718 4.715705440814289 119 102 121
0.9804675026669605 0.24376714018471904 4.713268656735954 96 69 88
-2.378132458803881 -1.384636776618782 8.76599557732489 169 187 235
0.9832299875696096 -0.8079692473381546 4.816031533822385 123 114 133
1.0896225122025005 0.4392429409715197 4.6064576172560505 110 93 111
-2.359192599599313 -1.4137205744101624 8.777807116512273 123 110 138
1.0405368045435175 -0.8297068916757523 4.75228942958839 94 63 79
1.1642588721116987 0.9025615347736687 4.481667396959526 141 126 145
0.8260632736834457 -0.7980295962145066 4.9725537349577005 128 101 110
-1.2312514147632936 -1.562601484395422 7.352230996800469 58 38 47
-0.526510555609783 -0.30473956472757635 5.770745493742705 114 73 91
-0.6267657989191743 0.40557391833265377 5.912699849725156 28 17 23
-2.3754416011583066 -1.1736100993760463 8.747130486322316 169 187 233
-2.372163002274146 -0.9592256161568669 8.742749883260075 167 188 233
-1.631699156825972 0.7720003446243829 7.77836943724353 78 62 73
1.2471773110517055 0.5719902940165904 4.404625317926274 120 92 107
-0.15348948695146772 0.6168905716129023 5.5376064358582235 99 58 64
-2.351550358067886 -1.2529656194724208 8.762984887862405 111 98 128
0.8164903673978681 -1.0958591524439274 5.019682470044056 128 112 138
1.1690208873692627 0.11319444310289467 4.527196063904426 105 84 103
0.8088378354099447 1.1202593042312075 4.848283305850874 60 48 62
-1.0471516680958322 0.7972113701244109 4.641645863748566 133 85 101
-2.3402135993536657 -0.019484657131100168 8.715060761821904 101 106 146
0.8676224239707209 -1.6090124549801887 5.011469950939934 89 71 85
1.2254859204809385 0.23761593355132957 4.4713139492578335 152 128 144
0.9387415604382128 -1.4103177717769795 4.895197897567064 126 103 123
1.1683968356667782 -1.2084653185955447 4.659300503790898 61 43 59
0.598321233823741 0.6323442105458262 5.101527456069808 139 112 127
0.7797400222278491 1.1731311527038257 4.861574452012865 113 80 91
-2.3899003906700806 -1.4143964325109246 8.84194710981721 169 185 237
-2.2987709395736187 0.19676819189258238 8.693400282169446 114 97 116
-1.9311252267320107 -1.4926353511289334 8.221102651892625 74 56 78
-1.7136979518019306 -1.5422577160756643 7.926413699580551 126 102 116
0.8833576753225381 0.19667722880879043 4.849268375177213 119 89 99
-1.3618403963733952 0.8233383538875155 4.816324778257496 113 61 73
-0.9454864366019395 0.7275595721317808 6.123052587718642 82 44 57
0.975811762062946 -0.6499771011906611 4.795522730908487 129 102 121
-2.378941067717188 -1.3327102108820494 8.79827723455851 178 195 241
-0.215181908437073 0.5851281540396278 5.629073007286939 159 100 118
0.8592504500288203 -0.9619627285126445 4.958475142592804 127 108 128
0.6614369277685689 0.616358821992823 5.044207145232882 136 106 116
0.7775604034324972 0.4553281667859949 4.952879575733257 42 31 39
-1.6894183266746832 -1.5206808166802532 7.91131936769077 58 45 55
0.794458192088184 -1.2549023281650429 5.030612399264369 113 90 106
0.9109407895222056 0.43146886192922346 4.776518303940416 103 85 97
0.5923010807278233 -1.2441802109998106 5.248477027620979 124 106 130
-1.526782802488237 0.2911779431438267 7.161730529711741 52 26 37
-0.9294342384179903 0.7114590248234849 6.099543098636444 136 94 114
-2.375275022849852 -1.090352852443869 8.752598681153957 170 187 239
1.1680703702276483 -0.06657841859155073 4.553253426596309 73 54 73
-2.3279985299521853 -0.274810602820075 8.678463446254076 113 94 114
-2.3661101106711073 -1.5621914387317282 8.770935178590513 114 112 151
0.4236006987155977 -0.36409354572131497 5.387535164330568 87 61 74
-1.597558783110996 0.04708217890977531 7.755395987499415 117 93 115
0.8046945465375918 0.7560429795891086 4.873525894499932 106 76 86
-0.0023560382250888143 0.7937502856093197 4.930381245067224 169 121 143
1.1612532878411483 1.2554910032922428 4.290818930906834 175 193 255
-1.1293976788757247 0.8794920917302184 4.66677973113822 133 86 102
1.1191647212382576 0.8232924878280521 4.533927031541872 131 101 109
0.8202319580218703 -1.3816059247473818 5.0184379723045405 67 44 64
0.9832090891226948 -0.30193526432000184 4.771212125903815 129 104 125
1.0114139144782692 -1.3931918763823492 4.8226939277228205 133 121 145
1.0697004547179139 0.8901264531081279 4.574526091959601 82 59 69
0.8957173868927403 -0.4947184678017901 4.862479189519475 133 100 117
1.02889557732208 0.2900590628002844 4.659200637197966 135 103 114
0.04060148375334142 0.6545818759771479 4.991098130516552 112 81 99
0.7316324242767867 -1.3752970484975968 5.14066154608804 83 60 80
0.9189076448071578 0.4821122924024053 4.771802609295458 118 88 98
0.8556015906219694 -1.1837166607897216 4.980238824626225 77 56 75
0.8889227668513534 -0.012021537350825529 4.851057386378605 119 98 113
0.850649374327882 -1.4003362989077797 4.990281648676107 126 108 124
0.14471433243231427 1.2392205298512353 4.780651186060415 134 86 108
1.1867594899194547 -0.4758346778297216 4.565142710328134 126 101 122
0.8799919730285198 -0.9978026771332207 4.923558974378412 127 103 117
-2.3425764196181467 -0.5234016214672103 8.71267947781963 122 107 126
1.096937132105855 -1.607339816778367 4.751731443714373 132 117 140
1.2139468283139614 1.0941622961216446 4.407530964517052 130 126 153
0.7083658425479074 -1.2810824157881016 5.15073267700496 131 109 130
1.1825642342644722 0.2698304531874797 4.50296822912255 144 121 137
-1.7469671032559166 0.08389164844099695 7.9339341823238 123 101 124
0.8543277741915007 -0.9984843660780949 4.951395876865771 126 101 120
-2.100951155355203 -0.4627398197244494 8.401631634903822 75 63 75
0.04830378891770599 0.936226823617217 4.932620170757551 107 64 74
-1.7244351831579163 -1.5241313996264918 7.960749233149473 65 49 59
1.1485684287811946 1.362121385145166 4.311476988704115 37 29 42
-0.8094827496599045 0.31291249722684195 5.968380008672918 21 16 13
0.7644127487816577 -0.6485446178572163 5.0244154990918295 111 86 107
-0.05638818840834028 0.6497871718713845 5.0986175520927635 62 50 54
0.9537517421413095 -0.6183702023481884 4.824741461992817 126 101 120
1.0151440517646533 -0.2955409440057268 4.723132427978601 125 100 122
-1.6096577192359356 -1.4954181650695284 7.804071842338451 132 107 126
0.9129684537015768 0.4499683772263206 4.795424296191302 55 40 45
0.8194897609860742 -0.9843514814589212 5.020007101215496 57 49 72
-1.6667446158006038 0.9697748737341402 5.234799676184719 74 35 38
1.2036840403646305 -0.6840929511473024 4.565299448073142 140 111 129
0.7523809473288035 -0.2526470023716738 5.015198107479079 125 101 123
-0.20811084773354796 0.6057844114895001 5.288623824492665 159 124 148
0.611998130164546 -0.9745224133826734 5.218662709827659 125 104 119
0.22250434418819232 -1.55269860388897 5.674647320389302 124 94 106
0.370376486103076 -1.2420338825609458 5.493698250819413 103 79 93
0.8537228259527829 0.44998321347841325 4.832911913859136 50 34 45
0.9538439526553601 0.29079526104928355 4.748741591207692 144 124 136
0.7627973475702762 0.4716354401462023 4.938692275979333 127 112 135
-2.348251690251335 1.4415726747129578 8.667918361766509 145 164 204
0.44191305005606757 -0.9850332283512502 5.4026729477071935 134 103 119
1.0613390119680783 0.3955557348202296 4.61726777528229 128 104 118
1.0696521575376985 0.4059191406297357 4.603122835204164 143 119 133
-1.726926497123535 0.9928077687354749 7.895330593199467 49 43 55
0.7807632513540582 1.1127991836630984 4.874515142523182 91 67 83
-1.6415511972468815 0.37844064072812494 7.802617264763531 107 93 116
-0.08763124343869837 0.7078049720275053 5.12365351216157 141 90 109
0.844675824424458 1.060290311160916 4.79999013763752 127 109 131
0.3854323152959798 -1.0592919257445568 5.471237575667674 89 62 77
-0.9089008928502915 0.8805460094547585 6.079452440559991 146 108 131
-1.246234730493922 -1.3744202806592514 7.370184783080887 89 65 81
-1.4569184551512204 -1.1511195849049103 7.608852493834932 92 69 85
-1.760694743143513 0.05336447970633579 7.964568998384872 42 32 41
0.6142393209454853 0.6624680160013322 5.092336353354713 102 88 111
0.9033355265318563 -0.946135455902147 4.918883752058929 140 116 130
-1.7378568991335175 0.7312106123524381 4.437804466449136 130 125 165
-1.2805100450518203 -0.7014848845549465 7.38152317458366 91 59 70
-0.7068230309107375 0.6817259692924369 5.868065060583017 134 91 110
-0.3723327455384662 -0.9327291029515297 5.808001748136056 111 65 75
-2.3283670056548393 1.6460551733073787 8.619624153790035 138 160 197
-1.618095673973444 1.0034930947981657 6.116084936010727 104 57 67
0.5265755163286643 -1.0908865441921236 5.316259158600384 99 72 79
-2.381252562592375 -1.3793493052440349 8.7559742676059 169 185 234
-2.328019560881173 -1.5662325802398023 8.795009467332145 105 87 111
0.6245000410555889 -1.3199783278933985 5.224328482894115 124 110 127
-0.9925081580359029 0.8758607753550539 4.663276889327402 131 84 100
-1.8400082169123386 0.9615100264515529 5.407846640807614 105 60 67
1.1369786073124446 0.5940469113019414 4.522438311797604 129 103 116
-2.329715677032298 0.453079743070316 8.693818171865832 99 98 129
0.7993038439073697 -0.2507040582699839 4.952443244382898 100 79 96
1.213271476669445 -0.3873800843836688 4.528861861873611 101 74 91
0.08378182884177592 0.9395810232273187 4.890601602606815 111 64 74
0.7818248735818435 0.953703408284294 4.893327180811746 131 122 153
0.8485928363767213 -1.2855893623584413 4.989555345652777 135 116 138
-0.6539837559466916 -1.0434673824576792 5.991658484914252 133 79 95
-1.8194685561655943 -0.1298426130273123 8.047548936570573 99 84 103
0.6560196073249304 0.35416393134209 5.063992188498566 113 82 97
-1.4305327568887405 1.285243038774192 4.924858110420759 113 75 90
-1.8292523952461888 -0.3032242633419426 8.05151714373705 54 39 58
-1.9973911997047376 0.7347166050879955 4.453114274472488 112 58 72
1.0095517868703057 0.7818578345859809 4.650903398788154 125 110 129
-0.22086153877163744 0.07253012945801818 5.789938979072998 133 77 88
0.5476243367318339 -1.5943677999516115 5.327666444978464 97 68 88
1.0597078069184493 -1.4024990601354674 4.78578995300849 117 102 125
-1.6325752435323428 0.7713863400687099 7.774239334004814 78 62 73
0.1536111213556829 0.5734535788218205 5.006015317803817 141 106 128
-1.0056864100704683 -0.25211807634171296 6.384139227505232 110 69 83
-0.8259254574724328 0.91299860987908 5.870929835288379 85 55 65
0.34883245598314555 -1.0661741243630793 5.504883367360747 127 110 129
0.16864772927407784 -0.556820689507953 5.672130657183713 147 119 142
0.862711260370415 0.9348475953362944 4.8079055154802015 63 45 57
-2.128876436746709 1.7336937686160245 8.214199802144337 47 50 55
-0.4295916640167063 0.8485729513990966 5.413451146786031 158 114 131
0.6224398255622399 1.1408926146422813 5.063145253239246 68 57 74
0.12376013631909881 1.2772386256567676 4.754971819984725 91 45 56
0.7865260073630773 -1.0556937761686338 5.038370667030255 123 99 115
-0.011294370324109773 1.2447189740249693 4.954139202399046 159 115 140
0.21846084431299986 -0.7041603393482964 5.622795227363396 96 69 76
0.8484005552453698 0.09801107339703254 4.863040420570442 129 105 119
1.0918815236534456 -1.6121409402010238 4.786099614330214 125 112 132
0.9526913195719318 -0.8237364797559682 4.8502269996599585 116 84 95
-2.3519804197791867 1.5413419942336917 8.652272860942126 136 160 196
-0.10600231091921812 0.7346131936961217 5.136743268656939 59 28 33
0.2532202900431476 -1.402537488308231 5.626263600336378 132 111 130
1.2330649201921546 -0.3260106578014703 4.50619725271881 100 70 94
-1.8340135745283432 -0.9120686242198299 8.082127396866687 107 81 94
1.0296732986440098 -0.23022438404589535 4.708107371156009 123 104 123
-2.324884409323617 1.256774453604737 8.64834797711955 143 165 204
-0.48359726501663225 0.7118945886675212 5.589062649439389 111 76 98
1.2730694561226608 1.2857845456164207 4.162317413929961 109 101 150
-2.3271137308870387 1.1923220025569787 8.648794263973187 142 165 206
0.4991047786348532 0.21149629424294314 5.256907760361123 117 94 110
1.0897874051147143 -1.3866341152149848 4.7581699512437545 113 95 121
0.8017379965598871 -1.2842990506042398 5.056825287315861 128 104 128
-2.0500992169504118 1.0696442890196738 8.313112059549523 128 109 129
-0.7591705401248967 0.793304169540218 4.632422974078733 130 76 90
1.0938581187473602 -1.418668083784018 4.74413594546804 65 50 69
-1.5151140612935794 1.0229655629435455 6.338386778396906 163 125 150
0.13769242551737282 -1.1896938878900278 5.744889753589691 140 121 141
1.2187321918543297 0.9644168444650142 4.401895167414247 107 84 102
0.20958693814516038 -0.7858867876791786 5.635412615387119 112 80 95
-1.377169214660056 0.8203044330200617 6.663885269221781 59 44 51
1.045447538667246 1.1098613869088674 4.585461939524066 43 27 38
0.7063088040420672 -0.4145703776699523 5.083970635572323 91 64 79
-1.3796979800984228 0.8238247144888814 4.836883147562526 118 65 81
0.6912486231699269 0.3689230773766319 5.0152578489126265 134 108 121
0.814810880466371 0.9374023194701193 4.8536013650978385 80 62 86
1.125464459694384 1.1038030956912948 4.507264279888808 48 36 46
-1.190805481655864 0.767973824251339 6.437703987444282 84 58 71
0.9018919957238251 1.0163299434625417 4.7389499600158596 96 71 100
-1.5960648973005958 0.9908454316658135 5.1528183530436475 114 67 83
0.7699253706557706 -0.7797662054478999 5.037420191881434 86 60 71
-2.0331049790637223 -0.8605882300056295 8.323656783210701 69 55 68
0.7408449881226187 -0.592330675921974 5.061406648585805 91 68 78
0.3084615080822895 -1.0840377146141835 5.5481725555513774 134 120 145
0.7616416926004339 -1.1832417072940842 5.0684977680409915 90 67 77
0.3291666519802255 -1.2044472244954214 5.539421240312145 128 103 125
-0.6056029856369798 0.37964435826328574 5.889460458489025 110 94 105
1.1543546401998734 -1.183785268273232 4.653862753075918 121 106 129
1.2050990047459287 1.098474442502923 4.409495372076466 112 101 135
0.16222125485825817 -1.2028566144447215 5.713960234493967 94 66 88
-0.05513359194622072 0.33695590060595293 5.598304598016038 68 25 34
-2.1604210804486064 -1.6288868005610606 8.493680564693605 59 47 61
0.7381609354701821 -1.0108546927247255 5.0801969150132615 124 99 121
0.5996501693296352 -0.9959159537572737 5.239311769598648 134 112 125
0.045411298658613444 1.3888575806502708 4.81747352016793 119 83 95
0.47913141437620077 -1.240138181175404 5.3971467350119156 131 110 129
-0.5389840518062188 -0.9435762619570057 5.84816886980626 85 39 49
1.081372610078507 0.45057294553620714 4.598668142673588 124 96 110
0.8598057770116986 -1.3337714757010781 4.981203084275694 129 105 127
1.2319792389944542 0.9316515639880665 4.394579847799706 129 106 122
-2.3309485459841133 -0.32780561677775943 8.717183186465066 107 92 113
-0.10446061914752486 1.3033404702141131 4.99266738556114 80 41 46
-1.5825443567658823 0.9304471876940207 5.110002507079809 109 62 72
0.43676005360482983 -1.2632689477665533 5.410828265120186 115 90 111
-1.674787261355529 0.7818722730446779 4.725962424957751 167 127 154
1.2439553044180025 -1.6489156198739006 4.606324342250779 122 104 128
-2.016255337360406 1.5133857599679847 8.27650791615977 117 105 127
0.943384728659461 -0.3193653171763346 4.803557676539161 105 77 92
0.5586091354928544 -0.0571399099028109 5.203171400760508 129 111 137
0.895619550649629 1.128796983048129 4.7475241884086605 79 61 83
0.5137317013444688 -0.5510072220348806 5.285923239286367 82 59 69
0.18751505427346807 -0.5337669030150106 5.655104652584328 141 110 126
1.2237552460062333 0.35580365343017084 4.433837249640935 131 103 118
-0.5582789051218148 0.5701986233632322 5.809226519483856 160 103 118
0.22948320563084362 -1.078072997334298 5.636522784657781 135 105 129
0.4248951297400485 -0.36623203216468914 5.377931729331466 90 66 80
0.10298703352199783 -1.32968623927985 5.7868741604585034 144 111 138
1.0996194234242482 -1.0437881208941677 4.6920531141399575 81 58 74
1.0836326801225753 0.24990925306546727 4.619455596738441 121 100 119
-1.5826324990259562 -1.490274095946245 7.815411253742055 126 97 115
-0.08337615238922115 0.6934243678279628 5.117659245323045 134 86 98
-0.9068671976430285 -0.2652187482783489 6.2608494939315325 107 65 79
0.900277457619076 0.6111852800456773 4.78508931653292 94 71 81
-1.3334332634043133 0.6615819659283693 7.069074291589195 134 81 101
1.060142729909252 0.46044332971848845 4.640770616711318 118 95 115
0.9048085275228277 0.14877216200403126 4.818332172170246 78 60 72
-0.22568689067850234 0.6811220386360344 5.29367177542206 119 80 99
0.7382537537532122 -1.0114576718384165 5.080768431658535 124 99 121
1.1481743693605806 0.9034255972819513 4.499660341213632 126 113 133
1.0865072855841684 -0.5944505236011084 4.687766606549672 129 108 127
0.8502166839721914 -1.4107477679793277 4.993632661715477 130 107 127
-2.343013092957969 -0.2499146130419976 8.725207339587202 126 121 153
-0.32749682246350403 0.6805678200472555 5.399202879991595 62 49 58
0.3221975755966575 -0.9489390091028758 5.525424484297101 135 107 119
-0.9758146091061176 0.6204681315721541 6.395098229983586 112 52 62
1.0066503774591076 0.14819425553889112 4.704315358948392 87 66 83
-1.3937665248186466 -0.8686392797933384 7.505263210235802 119 92 107
1.135796987446113 0.6082790922427486 4.5293589862790515 80 53 70
1.2642634738375584 0.7281433034157234 4.361308150238419 81 64 74
1.1164110383710726 -1.6285334869296149 4.738726136963469 69 56 73
-1.8091996293720958 -0.8040657514404268 8.03780277577856 124 101 121
0.8210915615381026 1.1110251054556994 4.823600154008307 59 41 53
-1.3210697217449252 -0.8541403953319268 7.439413533795852 66 49 59
-0.04289306231541768 0.600070516723786 5.394994671697133 106 63 72
0.7900754143957437 -0.5772355383580644 5.007466850880281 123 100 120
0.8060805700796183 -1.301212894059139 5.042386394157761 82 54 69
-1.2932524137021972 -0.6926363829071374 7.406361861193644 131 104 119
-0.29632641976372953 0.9043556454900598 5.814676092125953 156 113 132
1.0493817527612956 0.6318200113032908 4.619629481109042 138 123 142
0.3785486534498489 -1.1402081145832366 5.4804495395156705 129 106 124
1.0100062606582587 0.7876899871911537 4.644849494662409 123 99 113
-1.7691238192079675 0.7860118167292276 7.97512459112192 57 41 52
-0.8268861344262667 0.7276187758590529 5.980013012436305 95 54 62
0.27491902509701627 -1.2180737873305592 5.605741231628107 139 120 139
0.6615635889472989 -1.087191325059883 5.177164401435033 122 98 120
-1.7085424803079607 0.9475216743367801 5.25365241042359 112 67 74
1.2800509470925827 -0.2873451492680685 4.4516978423175075 89 64 85
-0.6871177823650461 0.7128876470084803 5.813431901250005 148 105 125
-0.935488341340469 0.5255619944579526 4.098993943185153 59 29 37
0.49839444090997037 -1.590249512613333 5.3981979541437335 91 71 83
0.9504792291497971 0.972464256147685 4.690106742837537 126 105 120
0.13082953011823237 1.2119340191772976 4.821067116192069 133 85 101
-1.8491766715438422 1.3449806272411515 5.429775999476892 110 71 89
0.3591094082669648 -0.5296110815233798 5.459573764136479 101 73 88
0.9425292622604337 0.4557792258605134 4.756096666190775 124 107 126
0.08365006211531377 -1.2235955887868297 5.804589598413188 136 109 128
0.716592128060059 1.0671134757962129 4.938103711236266 131 110 129
0.15497676720410294 -0.20730583478738465 5.147663068027108 87 33 33
0.8413613480614601 0.9339682920808376 4.828492625580757 88 68 79
-0.11956320852974 -0.042398624304846005 5.683682393293853 135 83 96
-1.4064172726014594 0.8276545204096717 4.86255298366531 111 61 73
1.085535669910736 0.26224119280017394 4.618478792439908 106 85 102
0.8853036361556116 -0.031153380013024725 4.854564356825312 72 46 55
-1.0805760185949216 1.0072100966697162 6.116766755195642 150 125 157
-1.8572726334828586 -0.12260564123373091 8.085204975557193 65 50 69
1.1834774645550505 -1.195324192721342 4.630149791055314 124 108 134
-2.284354672317289 -1.6626952223280247 8.656911936593088 86 68 94
-1.9325002032989267 1.7168702563586462 7.983990468227514 56 56 56
-1.9069975333929685 1.3512952601996502 5.4951699799476845 115 77 92
0.39874580748753247 -1.2606453788156449 5.465956164046285 128 104 128
-1.883934394650837 1.301326314914419 8.067544276634257 60 52 65
-2.1706364497011683 -0.9771455362380034 8.529972760106734 88 67 76
-0.013125427716115256 1.243603080315069 4.950499920616365 160 116 143
-0.22970162270157168 0.5362676034022522 5.700846300894973 126 66 74
0.7927222351207847 0.3359676478296707 4.915185306490018 117 87 95
0.5153601589804815 -1.4901527083487698 5.347859114328897 106 81 103
-1.6399441943848456 0.7775045429653268 4.608427250069784 112 59 77
0.14837767592358236 -1.2471363852539543 5.720423674697545 132 107 128
-1.6160231082266183 -0.8222033649764596 7.821128933862107 119 101 117
0.029462597099642027 1.2491460804309118 4.881238233239357 122 80 102
-2.3104787811821548 0.18109931681820227 8.65249825271432 116 92 114
0.8959502897320122 -0.3483118225753399 4.863177886361085 84 61 71
0.6317612429867471 0.6514142699419602 5.067074971244256 116 93 111
0.2322384048059864 -0.8259260853818704 5.610204237209416 108 74 90
1.0125526276160317 1.3198237108023279 4.4629054640421915 122 108 123
-1.180266009494466 -1.2621487297749392 7.269521662898828 129 102 119
-0.0993277570170208 1.2671354784002735 5.040134324605526 115 72 91
0.7753282886435492 0.28177041264045527 4.938061942227168 135 111 125
-0.15533668818616866 0.8723049428919556 5.057014553657394 49 30 26
1.006187233914108 -1.4088572976114553 4.839961374301302 71 57 82
-0.020665417855210328 1.1715829693878372 4.9906955525619345 126 78 94
-1.1166178105222682 0.9272581613953478 5.453381246996734 112 59 75
1.0181783842968255 -0.6428213505601816 4.758310185548159 140 116 132
0.5470819097430178 0.1318319222731121 5.195815241063099 129 101 116
0.6195740815847296 -0.01424731701861795 5.135022587357339 112 85 104
-1.919915041550734 -1.4767585094989664 8.2075641837875 137 126 143
-0.9445511915739597 -0.2600698556317796 6.302394134634857 109 67 81
0.8800430628584329 -0.4379730160202074 4.892821877581711 101 71 83
-0.5419225439555962 -0.5263018427478239 5.996832823564881 49 22 29
1.0796424206484154 -0.8731767854703875 4.724530075318974 135 112 138
1.0355411800567182 -0.09896632090298195 4.687162239845242 138 112 123
0.7306902164532688 -0.26569647969022253 5.042790864903874 113 91 114
-2.296157215401902 1.2636269992070126 8.608629490068632 103 98 121
1.098730238742319 -0.6085701565299885 4.667043865239546 62 48 63
-0.013691558357669692 0.6457115144920009 5.042285475787931 62 32 40
-1.4846767242377934 -0.8210337887064109 7.64631114159444 137 114 134
-1.2789497476534688 -1.554434819515337 7.408630447262537 46 30 41
0.8634930835992356 -1.60678480225256 5.0088742243835 89 71 85
0.2663281846477191 -1.0327618693557907 5.595103182418336 138 119 139
-1.2340368590721058 -0.5189382773131069 7.334049351073685 114 100 125
1.2549139016882023 -0.08529334805892252 4.461714728640551 135 118 136
0.02790102813314937 1.2361551232573174 4.914236320355327 148 102 128
0.8156116108292736 -1.0960618545534444 5.019684155016183 128 112 138
0.750397826510139 1.3483326813736483 4.741616260907492 129 115 130
1.2047348226838157 1.0979249812254888 4.410179331099559 113 103 137
-2.3676822165607843 -0.6143949570485625 8.755901499272657 164 180 229
0.46083820211366494 -0.7395118131773989 5.373019184263365 136 122 145
0.6830581378485248 -1.3983313468850036 5.170673367517678 104 80 96
-0.4137075408010974 0.6652667451581716 5.510122674812349 62 45 53
1.1029316302106669 0.5096788868599262 4.570705350581283 98 74 87
-0.9200877770696094 0.9641744413992155 5.957875866257855 87 58 63
-0.3749465556131694 0.7909355847124662 5.429938311751301 100 67 86
0.8004390985220319 0.29039441854724324 4.919196209998812 114 81 88
0.9595507809293125 0.3109548204868526 4.727102685353698 106 78 92
-2.2425917589381195 1.7505268415706374 8.3806655978276 65 57 78
-1.5316971482995796 0.6991418932573303 7.076536010792789 153 102 117
0.12459324173964534 1.2832370140416238 4.738615046748501 133 91 103
0.08742081346451797 -1.5920756122600854 5.821756739785641 116 93 113
0.8883335443412693 0.11902977471765112 4.8346048479451715 130 106 120
0.22939455728237795 -1.0531033321683774 5.63110423758985 102 70 83
-2.2024260312885025 -1.0204411895700058 8.553002965552748 87 66 81
0.6902709585646934 -0.586720065170457 5.1107403084470855 111 90 105
0.15144174824672663 0.777604466103985 4.851501716716366 123 74 80
0.921047818599547 0.4829828490925663 4.771216087818082 118 91 100
1.036375599128714 0.28268477476276505 4.66183060186767 146 118 132
0.5914072011641938 0.0204108730963292 5.166890580253252 133 118 139
-2.081558658275824 -1.4784444076387335 8.404435582515873 125 110 131
-2.1788257531575903 1.7216518831430063 8.324272443958371 128 117 134
-0.6768326478721423 0.6927154331325346 5.810035634650554 76 40 52
-2.178062408697186 1.7545722122510072 8.31880972710255 50 54 66
-1.920785891429056 -0.09528446633591951 8.175611131656165 118 108 135
-1.6689166363563444 -0.1360949232078584 7.866509055758374 109 93 120
1.2817397621150566 0.8784308789232783 4.3340973655287796 78 51 60
0.7968921492114399 -0.2285676123021091 4.967337118169724 62 41 48
1.1309043459553745 1.0430669387945208 4.496482944160691 97 75 98
0.9193186479953827 -0.44964116019971095 4.853368000166066 127 102 124
-1.2618666103818472 -1.5555469954617682 7.394103776031417 52 32 44
0.5886685368140651 -1.1257332203458346 5.248824407703572 116 92 108
0.2758328596073391 -1.3425643151438993 5.608246875751232 132 109 125
1.1425431825496486 -1.031475074495891 4.66572665663327 114 95 123
-1.1385688893632477 1.0499773581391185 6.445517078362584 142 121 154
0.625429965792674 1.2060192129170197 5.031921533900792 78 66 78
0.5472468997355575 -0.9981208226265709 5.2866614682058755 111 80 96
0.6346734542624244 -1.102661035211399 5.180132761062262 94 73 80
0.6669932613897186 -1.5546292021229149 5.20774188918073 93 63 89
0.560722089979142 0.5714393717238738 5.145412749388945 128 106 129
-2.2965399831766566 -1.6446745390385373 8.666878023725921 126 110 137
0.6747630742563212 1.1302119803408799 4.984521852958848 50 35 42
-1.7735191991221981 0.8752142312390927 5.303071280152354 108 58 69
0.7561033890000532 0.47252183060760006 4.95899792604461 111 99 123
-0.35646758016144764 0.6568526897289957 5.440330043696704 55 38 46
0.6011721273961326 -1.4059656192921557 5.2541749458609734 123 105 127
-0.34103923425689703 0.6961426561364634 5.414247359454375 131 91 102
-0.8910845012650694 0.7981028873182229 4.649731762656241 129 78 93
-1.2772196727799114 -0.5407486797832707 7.375799447426653 102 63 68
-2.313043026708128 1.1312036956657738 8.664695089087008 102 96 122
-0.745816612052368 -0.904701235211918 6.083733965266088 123 72 87
-2.0678068223972654 -1.2830451243566774 8.403021501045878 134 109 130
-1.5149856972028695 -1.5217826771152247 7.7074385371735525 71 53 65
-1.8228958498042407 1.4700419394383186 8.01170402406969 56 45 59
-1.7563872073847386 -0.1368358712780848 7.934050104289895 68 49 69
1.1201592940971503 1.0608492627665682 4.501886314904893 137 124 142
0.36284315720799987 -1.047773601834121 5.493329047105341 88 66 78
-1.9179904301751358 -0.10897583853370292 8.154457981310152 56 42 65
-1.6420784222165632 0.37835137491172227 7.801966325783946 107 93 116
1.271967015599927 -1.483998878995532 4.560141363846819 96 68 90
0.6324061914198716 -1.5493437254101714 5.243908523862119 76 58 72
0.8353483465276805 -1.110611166170207 4.988314010146368 56 44 58
-66.30045599149108 -20.639741981550817 -123.13702151209694 142 121 154
0.8580205450277559 0.757815666785713 4.822032302431638 134 106 120
0.2789852564046542 -0.736848220201498 5.563877413466249 134 107 124
-2.080247082870094 0.7222014481198998 8.366418497224911 125 106 125
0.49061859892783527 -1.4932292480197364 5.377112511774959 111 79 102
1.2547458761013965 -0.09039822708149749 4.462501429320289 127 103 125
-0.7054124582853226 -0.5178873328505053 6.187457158890305 116 65 70
0.9834860069382297 -1.043149596177733 4.812144683035844 109 82 99
0.6255828674056155 1.1974407154691191 5.027347777707675 76 63 81
1.076413900859958 0.5463341098620128 4.605000811886079 132 111 128
0.735287539352008 -0.44317155944460407 5.042279371922768 131 108 128
0.14432644638294653 -1.386069557065431 5.747955377273673 128 94 110
0.41660306163027055 -1.0654102292349763 5.4342296139184345 92 65 80
0.7407250771576472 0.8618676599362953 4.942935579088689 102 83 103
-1.6409723557962437 -1.5097493494218106 7.870546398568496 127 100 115
0.7053985232309185 -1.568788772148648 5.1770000228622335 62 48 71
0.9729091872256359 -1.183797005865844 4.8537689971316125 113 104 125
-0.7274100825936871 0.8814908741883674 5.730243230757147 129 102 119
0.8870533848062803 0.6287703122312339 4.812358677279604 94 68 79
0.9198060721474436 0.34870470791612296 4.7678372708351775 88 65 73
0.8086810865274724 -0.4225025635040102 4.966615134066368 134 103 118
0.5873957026867367 -0.7269925155889732 5.229445752405336 132 119 139
0.8102883121578848 -1.3172040982660027 5.027245199057873 131 103 118
-1.9025159563854075 -0.28154629907571926 8.13398426675217 118 96 117
0.8559600414191331 -0.214181286557913 4.911508880334045 128 109 131
-0.543243891224535 0.5549806276934268 5.826820845901511 123 61 72
-0.4518012078722197 0.21290308050306428 5.866464477587019 77 33 48
0.7932597262280053 0.6097016294544381 4.893189070917575 67 45 57
-2.126914891046239 0.3544200028533338 8.447832213735255 125 115 139
-1.6160750478471475 -0.8069057109988382 7.823038415728146 121 96 118
-1.7461083326659361 -1.5207733051580288 7.988730677182224 63 46 56
0.011489218642820225 0.963986411802639 4.979555542329277 68 30 43
-1.6961090616489087 -0.13783484298483267 7.888885509016166 120 104 130
0.5816067999168034 -1.2981058065687185 5.270027469694765 131 108 128
0.8865417806762729 0.7995418982114993 4.781047467700975 123 102 117
0.960832890195468 -0.4453172714497168 4.817065711106109 113 85 99
-0.2232525349326482 0.6238694176707825 5.605617059662731 118 61 67
-1.974845456982208 -0.09508944702152738 8.234165923111041 69 55 81
-1.7461058657353972 0.3780759477683201 7.929761945492305 53 35 47
-0.1496538252023941 0.6611089986108839 5.2003036815786565 116 81 105
0.4555049154098293 -0.5257531279643046 5.341460046705561 133 108 129
0.5334722177001252 -1.5721689907035619 5.350266455729664 113 85 107
0.6566214496644576 0.617305847761107 5.039926193229558 136 109 118
1.1206265403724769 0.10368498058082054 4.581649209984261 124 105 125
0.9158157620766647 -0.9466186009513737 4.872154804322508 143 119 133
1.180334477583869 -1.032831524101855 4.615467900616496 128 111 130
1.1945606058208627 -1.3204441471656017 4.622553151024356 136 117 137
0.9283944533771582 -0.5973476575971133 4.855312071677279 79 55 69
0.6253601615973279 -0.2051843617388327 5.173169425548043 75 52 68
0.7230515468325986 1.1670688402445335 4.931989650431279 65 48 56
-0.8651451546512923 0.7162696491345099 6.029970201349294 95 48 64
-0.10838483169040863 0.32699634810413125 5.649972976725494 130 79 86
0.6394426050351327 1.2167917805814237 5.004750695912677 58 53 73
0.8381861200875173 -1.5403089452851508 5.0069242495232995 100 75 94
0.7382901485608578 -0.5397941719067652 5.055763818149774 113 89 103
1.1697440519039901 -1.4286880372320203 4.670328120038989 81 57 81
0.523934280050143 -0.720820833344872 5.287153186393103 122 112 137
-1.1866575353165325 -1.4175723649783207 7.281851024934088 101 88 105
1.0414978222576274 0.09860283314882963 4.667744370138584 126 100 125
-0.41194468016398605 0.6654731630626429 5.511132492864378 62 45 53
0.021191007324517248 0.9450250119124707 4.955223765942288 112 66 76
-2.3328999462068545 0.377814813975843 8.688523911823333 109 113 142
-1.9660431032442396 -0.10904516355493378 8.214410998397016 87 77 101
0.2759162600212723 -1.221881026759543 5.613007743318996 138 115 133
-2.3305519524349383 0.5518157001716272 8.689326665436742 99 114 145
0.8220532667122783 0.8384189412308427 4.84547084715213 101 79 92
0.47826038722513414 -0.477763784862839 5.3173034949601 93 71 92
-1.6367793895590723 0.3485657539692672 7.79738391887899 65 48 64
0.799995339595127 0.12352743535924315 4.943617092017007 130 106 120
-1.9568682894164244 1.0313369204508356 8.184145573942349 56 48 63
-1.9880641410277515 1.6890999819824328 8.083856512544727 111 100 106
0.6009718649177845 0.2716367411701086 5.131645842567048 129 102 117
-0.7245916819125969 0.8340266132393588 4.855924255116827 128 73 92
-2.3493860697668065 -0.418798997142948 8.717981238047578 111 110 144
0.39756325040925117 -0.7071764389192002 5.43608664237541 82 61 78
1.2695468112110653 1.2651648146960806 4.176933741130384 172 187 254
-1.895025888170366 0.3014111091067457 8.124178164959467 59 51 64
0.6202089516871948 -1.0035632068665326 5.2147186338316285 139 111 126
-1.206476633540633 -1.175641464900517 7.308657657410207 77 55 67
1.2295390528279126 0.1285605132824687 4.464663003544359 137 118 138
0.014682486167498704 1.2659336120819744 4.890280998331705 169 123 151
0.6929319554604835 1.2186970759540479 4.942515011756545 113 119 143
-1.7794133889311632 0.08183964911727257 7.957918773915242 107 83 105
0.6690858232597973 -0.23304145426944187 5.1002664037304895 85 63 76
0.9600747851666537 0.922707914211114 4.693514668034057 133 118 137
1.2512611121239958 0.7356852439461791 4.38165531759483 77 59 75
-1.8462496431630675 -0.1469699681274217 8.065373895200098 122 102 129
1.0912686680560122 -1.5838902582463825 4.754264171400992 124 106 130
0.7925955870157632 0.16469227930051303 4.946927578016981 63 39 63
0.8569837748824435 -1.6081404664208536 5.009547737259311 87 69 83
-0.2770660806569447 0.678468077307714 5.341840432543577 61 31 41
0.7903701896284655 -1.118519689398503 5.050246842899203 93 70 78
-0.8151475249817873 0.9179967046498183 5.84401709348359 58 45 54
0.34584333996831507 -1.4408159081734138 5.54028442473751 141 122 142
-0.8778090275948083 0.6041567667991553 6.246128025627847 89 39 50
-0.791131599721324 -0.03263509199485716 6.246574427688937 87 47 48
0.7345228855489225 -1.5781839506087687 5.145028670897807 84 66 78
-2.1572818793189312 -1.0251453715374252 8.505223775099372 63 46 62
-1.5020453134612697 0.33925869696129873 7.643580315131371 48 35 42
0.31502981849526634 -1.5256634456923936 5.579014779854351 86 59 76
0.9840130806586272 0.38664019179955283 4.7078060633712475 122 98 114
1.1676970261941353 1.007100253324867 4.4498205594113625 124 103 118
-1.443333074510239 -0.6899879316653289 7.583546125959204 111 96 117
1.0681645463530638 0.7713164468861816 4.5912252363857835 78 54 70
1.1388478278558327 -1.3793401450696936 4.679117103951749 115 89 116
0.4986046841672631 0.19224522536317215 5.250053898831253 91 60 65
0.9918274733426116 0.27011489672460276 4.702248428791436 106 83 99
0.41301263226493734 -0.8666213922988796 5.424309182220013 126 102 124
-0.7833848925129778 0.9120521975621918 5.808191334297142 53 43 52
0.8562499499055846 0.15268246623858897 4.869632308809477 112 93 113
0.33603237122319274 -0.7028757237124734 5.502397581103205 108 77 92
0.3563293760721509 -0.7065592786880586 5.472875936348041 113 91 104
1.1343825266497465 -1.0107555889002042 4.6727446466997975 95 86 105
0.9407839191368113 -1.5787674172459092 4.9177375339622955 132 113 133
0.8056979046087757 1.1891798369859596 4.818411179401044 114 82 95
-2.124344098102011 -1.3084507783969603 8.453940938490808 139 113 126
0.0040724046841740065 1.1011640800618596 4.9749000119339994 134 82 94
-1.5414962396468932 -0.15437988307594241 7.699528123221495 120 103 121
-0.5306050121549085 -0.32278293980035777 5.823133747454921 73 38 42
0.9467820107834715 -0.8065874536380432 4.858080329949383 129 108 123
0.5220097224259944 -0.3888540856441801 5.261420834676951 102 72 82
-0.20060932218411023 0.675603959789054 5.2662774234054295 113 80 99
-0.5636513173573764 0.8720670432335965 5.649873355706986 143 100 117
0.9405815264797569 1.1743776672584703 4.671580576813727 122 98 114
-2.3447947584767395 -0.3702737143219886 8.702530769191307 112 102 127
1.0242836096136185 0.9560261827060179 4.60897029448661 99 76 92
-1.3720988362415474 0.9079623257716732 5.355456976732289 109 58 65
-1.7302354140895193 1.169851432027432 5.319561943170171 72 38 52
